ncols         221
nrows         59
xllcorner     -627000
yllcorner     4066600
cellsize      900
NODATA_value  -9999
-9999 -9999 -9999 -9999 -9999 -9999 -9999 -9999 -9999 -9999 -9999 -9999 -9999 -9999 -9999 -9999 -9999 -9999 -9999 -9999 -9999 -9999 -9999 -9999 -9999 -9999 -9999 -9999 -9999 -9999 -9999 -9999 -9999 -9999 -9999 -9999 -9999 4483.422 4477.938 4271.487 3821.942 4023.297 4246.884 4409.534 4376.599 4407.23 4447.09 4418.837 4270.912 4015.875 3869.926 4191.087 4127.583 4106.293 4139.752 4161.626 4113.376 4062.469 4050 4053.03 4059.142 4060.097 4057.332 4050 4050 4139.231 4140.136 4138.837 4050 4228.586 4299.421 4319.823 4315.086 4320.376 4410.049 4453.252 4333.912 4495.781 4589.824 4635.158 4679.793 4680.027 4680.817 -9999 -9999 -9999 -9999 -9999 -9999 -9999 -9999 -9999 -9999 -9999 -9999 -9999 -9999 -9999 -9999 4800.675 4727.637 4661.34 4320.044 4711.839 4770.323 4730.454 -9999 -9999 -9999 -9999 -9999 -9999 -9999 -9999 -9999 -9999 -9999 -9999 -9999 -9999 -9999 -9999 -9999 -9999 -9999 -9999 -9999 -9999 -9999 -9999 -9999 -9999 -9999 -9999 -9999 -9999 -9999 -9999 -9999 -9999 -9999 -9999 -9999 -9999 -9999 -9999 -9999 -9999 -9999 -9999 -9999 -9999 -9999 -9999 -9999 -9999 -9999 -9999 -9999 -9999 -9999 -9999 -9999 -9999 -9999 -9999 -9999 -9999 -9999 -9999 -9999 -9999 -9999 -9999 -9999 -9999 -9999 -9999 -9999 -9999 -9999 -9999 -9999 -9999 -9999 -9999 -9999 -9999 -9999 -9999 -9999 -9999 -9999 -9999 -9999 -9999 -9999 -9999 -9999 -9999 -9999 -9999 -9999 -9999 -9999 -9999 -9999 -9999 -9999 -9999 -9999 -9999 -9999 -9999 -9999 -9999 -9999 -9999 -9999 -9999 -9999
-9999 -9999 -9999 -9999 -9999 -9999 -9999 -9999 -9999 -9999 -9999 -9999 -9999 -9999 -9999 -9999 -9999 -9999 -9999 -9999 -9999 -9999 -9999 -9999 -9999 -9999 -9999 -9999 -9999 -9999 -9999 -9999 -9999 -9999 -9999 -9999 -9999 4358.273 4260.564 3817.282 4088.35 4387.929 4410.339 4407.791 4410.026 4431.84 4410.053 4448.068 4414.63 4313.698 4182.932 3874.906 3878.844 3946.863 4022.207 4137.24 4107.358 4073.751 4050 4050 4050 4050 4050 4050 4033.212 4050 4050 4050 4138.748 4200.56 4230.009 4230.475 4274.882 4301.819 4319.312 4294.26 4050 4310.276 4500.153 4616.457 4592.099 4679.619 4591.054 4680.487 4769.871 4769.868 -9999 -9999 -9999 -9999 -9999 -9999 -9999 -9999 -9999 -9999 -9999 -9999 4931.339 4856.048 4769.557 4614.227 4320.044 4723.283 4826.596 4768.167 4647.328 4581.859 4679.992 -9999 -9999 -9999 -9999 -9999 -9999 -9999 -9999 -9999 -9999 -9999 -9999 -9999 -9999 -9999 -9999 -9999 -9999 -9999 -9999 -9999 -9999 -9999 -9999 -9999 -9999 -9999 -9999 -9999 -9999 -9999 -9999 -9999 -9999 -9999 -9999 -9999 -9999 -9999 -9999 -9999 -9999 -9999 -9999 -9999 -9999 -9999 -9999 -9999 -9999 -9999 -9999 -9999 -9999 -9999 -9999 -9999 -9999 -9999 -9999 -9999 -9999 -9999 -9999 -9999 -9999 -9999 -9999 -9999 -9999 -9999 -9999 -9999 -9999 -9999 -9999 -9999 -9999 -9999 -9999 -9999 -9999 -9999 -9999 -9999 -9999 -9999 -9999 -9999 -9999 -9999 -9999 -9999 -9999 -9999 -9999 -9999 -9999 -9999 -9999 -9999 -9999 -9999 -9999 -9999 -9999 -9999 -9999 -9999 -9999 -9999 -9999
-9999 -9999 -9999 -9999 -9999 -9999 -9999 -9999 -9999 -9999 -9999 -9999 -9999 -9999 -9999 -9999 -9999 -9999 -9999 -9999 -9999 -9999 -9999 -9999 -9999 -9999 -9999 -9999 -9999 -9999 -9999 -9999 -9999 -9999 -9999 -9999 -9999 4070.064 3812.879 4279.612 4333.019 4381.571 4354.613 4145.384 4324.639 4410 4409.92 4430.065 4402.461 4320.472 4296.97 4207.813 4002.336 3883.783 3887.627 3946.198 4010.902 4050 4050 4050 4049.544 4050 4050 4050 4039.381 4042.996 4050 4055.139 4110.153 4140.107 4169.701 4173.504 4203.924 4227.752 4134.433 4050 4298.815 4364.936 4409.735 4414.44 4499.251 4586.105 4501.017 4589.86 4680.184 4709.145 4718.289 4770.189 4829.164 4792.532 4859.721 -9999 -9999 -9999 -9999 -9999 -9999 -9999 4949.998 4860.556 4770.377 4663.741 4320.044 4627.674 4769.242 4629.519 4140 4140 4503.658 4678.237 4743.9 4665.314 -9999 -9999 -9999 -9999 -9999 -9999 -9999 -9999 -9999 -9999 -9999 -9999 -9999 -9999 -9999 -9999 -9999 -9999 -9999 -9999 -9999 -9999 -9999 -9999 -9999 -9999 -9999 -9999 -9999 -9999 -9999 -9999 -9999 -9999 -9999 -9999 -9999 -9999 -9999 -9999 -9999 -9999 -9999 -9999 -9999 -9999 -9999 -9999 -9999 -9999 -9999 -9999 -9999 -9999 -9999 -9999 -9999 -9999 -9999 -9999 -9999 -9999 -9999 -9999 -9999 -9999 -9999 -9999 -9999 -9999 -9999 -9999 -9999 -9999 -9999 -9999 -9999 -9999 -9999 -9999 -9999 -9999 -9999 -9999 -9999 -9999 -9999 -9999 -9999 -9999 -9999 -9999 -9999 -9999 -9999 -9999 -9999 -9999 -9999 -9999 -9999 -9999 -9999 -9999 -9999 -9999 -9999 -9999 -9999
-9999 -9999 -9999 -9999 -9999 -9999 -9999 -9999 -9999 -9999 -9999 -9999 -9999 -9999 -9999 -9999 -9999 -9999 -9999 -9999 -9999 -9999 -9999 -9999 -9999 -9999 -9999 -9999 -9999 -9999 -9999 -9999 -9999 -9999 -9999 4226.024 4053.721 3808.795 4030.925 4329.764 4401.114 4103.792 3852.881 3853.087 4231.96 4358.233 4338.373 4395.775 4370.238 4317.982 4267.091 4229.731 4140 4140 4126.832 3892.449 3942.356 3997.606 4050 4050 4050.003 4050.005 4050.09 4050 4047.258 4050 4050 4059.788 4092.813 4121.516 4140.004 4106.932 4095.749 4074.018 4050 4134.948 4269.854 4315.893 4320.095 4320.042 4364.92 4389.386 4409.859 4500.081 4565.574 4548.375 4655.255 4680.372 4683.125 4767.121 4771.491 4859.632 -9999 -9999 -9999 -9999 -9999 -9999 4949.799 4857.746 4709.939 4585.214 4320.044 4414.473 4651.972 4766.313 4460.779 4428.886 4140 4507.46 4678.059 4400.759 4505.562 -9999 -9999 -9999 -9999 -9999 -9999 -9999 -9999 -9999 -9999 -9999 -9999 -9999 -9999 -9999 -9999 -9999 -9999 -9999 -9999 -9999 -9999 -9999 -9999 -9999 -9999 -9999 -9999 -9999 -9999 -9999 -9999 -9999 -9999 -9999 -9999 -9999 -9999 -9999 -9999 -9999 -9999 -9999 -9999 -9999 -9999 -9999 -9999 -9999 -9999 -9999 -9999 -9999 -9999 -9999 -9999 -9999 -9999 -9999 -9999 -9999 -9999 -9999 -9999 -9999 -9999 -9999 -9999 -9999 -9999 -9999 -9999 -9999 -9999 -9999 -9999 -9999 -9999 -9999 -9999 -9999 -9999 -9999 -9999 -9999 -9999 -9999 -9999 -9999 -9999 -9999 -9999 -9999 -9999 -9999 -9999 -9999 -9999 -9999 -9999 -9999 -9999 -9999 -9999 -9999 -9999 -9999 -9999
-9999 -9999 -9999 -9999 -9999 -9999 -9999 -9999 -9999 -9999 -9999 -9999 -9999 -9999 -9999 -9999 -9999 -9999 -9999 -9999 -9999 -9999 -9999 -9999 -9999 -9999 -9999 -9999 -9999 -9999 -9999 -9999 -9999 -9999 -9999 4161.365 4004.537 3806.133 3878.972 4106.737 4113.105 3852.679 4311.642 4248.425 3853.345 4228.096 4408.209 4420.922 4305.389 4140 4140 4140 4140 4140 4140 4009.855 3897.148 3943.439 4049.929 4068.406 4050 4050.008 4050.172 4050.333 4050 4050 4050 4057.005 4078.23 4107.527 4139.361 4050 4050 4050 4093.288 4228.838 4230.103 4260.102 4264.105 4264.721 4287.256 4299.967 4320.495 4409.248 4410.499 4411.084 4502.665 4558.426 4590.018 4592.766 4679.315 4770.351 4859.729 4873.006 4904.791 4948.936 4915.926 4859.372 4859.927 4728.677 4592.191 4500.88 4320.044 4289.345 4499.908 4609.377 4454.042 4292.183 4140 4329.039 4544.051 3870 3870 -9999 -9999 -9999 -9999 -9999 -9999 -9999 -9999 -9999 -9999 -9999 -9999 -9999 -9999 -9999 -9999 -9999 -9999 -9999 -9999 -9999 -9999 -9999 -9999 -9999 -9999 -9999 -9999 -9999 -9999 -9999 -9999 -9999 -9999 -9999 -9999 -9999 -9999 -9999 -9999 -9999 -9999 -9999 -9999 -9999 -9999 -9999 -9999 -9999 -9999 -9999 -9999 -9999 -9999 -9999 -9999 -9999 -9999 -9999 -9999 -9999 -9999 -9999 -9999 -9999 -9999 -9999 -9999 -9999 -9999 -9999 -9999 -9999 -9999 -9999 -9999 -9999 -9999 -9999 -9999 -9999 -9999 -9999 -9999 -9999 -9999 -9999 -9999 -9999 -9999 -9999 -9999 -9999 -9999 -9999 -9999 -9999 -9999 -9999 -9999 -9999 -9999 -9999 -9999 -9999 -9999 -9999 -9999
-9999 -9999 -9999 -9999 -9999 -9999 -9999 -9999 -9999 -9999 -9999 -9999 -9999 -9999 -9999 -9999 -9999 -9999 -9999 -9999 -9999 -9999 -9999 -9999 -9999 -9999 -9999 -9999 -9999 -9999 -9999 -9999 -9999 -9999 -9999 4112.456 3950.346 3804.428 3828.843 3946.416 3852.538 4071.784 4365.283 4320 4074.967 3853.646 4228.669 4385.655 4320.255 4266.171 4230 4229.437 4151.667 4140.018 4140 4140 3900.42 3902.852 4046.902 4085.06 4050 4050 4050 4050 4050 4050 4048.236 4048.238 4050.524 4050.249 4050 4139.383 4097.25 4097.61 4132.454 4202.556 4213.619 4229.984 4229.996 4230.018 4253.65 4263.984 4271.523 4319.357 4320.563 4382.692 4381.843 4140 4485.946 4544.073 4589.844 4651.388 4769.005 4814.993 4813.534 4805.681 4836.02 4686.159 4810.254 4814.445 4711.751 4579.811 4300.465 4280.483 4408.912 4454.316 4316.683 4140 4201.4 4434.225 4500.073 4333.288 4442.63 3870 -9999 -9999 -9999 -9999 -9999 -9999 -9999 -9999 -9999 -9999 -9999 -9999 -9999 -9999 -9999 -9999 -9999 -9999 -9999 -9999 -9999 -9999 -9999 -9999 -9999 -9999 -9999 -9999 -9999 -9999 -9999 -9999 -9999 -9999 -9999 -9999 -9999 -9999 -9999 -9999 -9999 -9999 -9999 -9999 -9999 -9999 -9999 -9999 -9999 -9999 -9999 -9999 -9999 -9999 -9999 -9999 -9999 -9999 -9999 -9999 -9999 -9999 -9999 -9999 -9999 -9999 -9999 -9999 -9999 -9999 -9999 -9999 -9999 -9999 -9999 -9999 -9999 -9999 -9999 -9999 -9999 -9999 -9999 -9999 -9999 -9999 -9999 -9999 -9999 -9999 -9999 -9999 -9999 -9999 -9999 -9999 -9999 -9999 -9999 -9999 -9999 -9999 -9999 -9999 -9999 -9999 -9999
-9999 -9999 -9999 -9999 -9999 -9999 -9999 -9999 -9999 -9999 -9999 -9999 -9999 -9999 -9999 -9999 -9999 -9999 -9999 -9999 -9999 -9999 -9999 -9999 -9999 -9999 -9999 -9999 -9999 -9999 -9999 -9999 -9999 -9999 -9999 4123.599 3965.374 3803.611 3841.235 3852.465 4021.576 4241.467 4409.704 4320 4320 4168 3853.987 4237.066 4218.912 4230 4230 4230 4190.095 4162.222 4140.035 4140 4140 3904.927 3908.302 4046.819 4031.905 4050 4050 4050 4050 4050 4048.182 4045.692 4045.475 4050 4092.75 4140.001 4133.678 4139.985 4147.541 4170.217 4182.803 4194.124 4197.835 4205.656 4229.854 4229.713 4202.508 4209.071 4245.6 4311.71 4140 4383.604 4477.092 4500.02 4500.021 4560.489 4635.82 4676.044 4508.861 4140 4648.167 4590.15 4594.676 4682.015 4766.114 4560 4407.807 4310.502 4320 4318.107 4179.858 4140 4256.952 4372.482 4410.126 4454.988 4398.463 3870 -9999 -9999 -9999 -9999 -9999 -9999 -9999 -9999 -9999 -9999 -9999 -9999 -9999 -9999 -9999 -9999 -9999 -9999 -9999 -9999 -9999 -9999 -9999 -9999 -9999 -9999 -9999 -9999 -9999 -9999 -9999 -9999 -9999 -9999 -9999 -9999 -9999 -9999 -9999 -9999 -9999 -9999 -9999 -9999 -9999 -9999 -9999 -9999 -9999 -9999 -9999 -9999 -9999 -9999 -9999 -9999 -9999 -9999 -9999 -9999 -9999 -9999 -9999 -9999 -9999 -9999 -9999 -9999 -9999 -9999 -9999 -9999 -9999 -9999 -9999 -9999 -9999 -9999 -9999 -9999 -9999 -9999 -9999 -9999 -9999 -9999 -9999 -9999 -9999 -9999 -9999 -9999 -9999 -9999 -9999 -9999 -9999 -9999 -9999 -9999 -9999 -9999 -9999 -9999 -9999 -9999 -9999
-9999 -9999 -9999 -9999 -9999 -9999 -9999 -9999 -9999 -9999 -9999 -9999 -9999 -9999 -9999 -9999 -9999 -9999 -9999 -9999 -9999 -9999 -9999 -9999 -9999 -9999 -9999 -9999 -9999 -9999 -9999 -9999 -9999 -9999 4301.21 4230.405 4164.421 4139.273 4218.474 4371.229 4403.029 4409.708 4402.173 4320 4320 4290.599 4170.155 3854.363 3854.725 4179.93 4229.547 4259.84 4230.082 4199.219 4162.27 4140.004 4137.902 4037.139 4047.425 3912.536 3915.662 3919.309 4050 4050 4050 4050 4050 4047.987 4050 4050 4140 4140 4140 4140 4140 4140.007 4152.109 4161.988 4162.639 4159.286 4150.125 4140 4140 4140 4140 4140 4310.079 4406.962 4410.314 4452.68 4410.52 4499.424 4589.972 4679.874 4559.426 4140 4553.298 4500.746 4481.168 4501.243 4547.457 4499.662 4410.225 4320.12 4319.557 4215.921 4140 4187.208 4318.93 4320.196 4341.522 4321.562 4309.81 3936.514 3870 -9999 -9999 -9999 -9999 -9999 -9999 -9999 -9999 -9999 -9999 -9999 -9999 -9999 -9999 -9999 -9999 -9999 -9999 -9999 -9999 -9999 -9999 -9999 -9999 -9999 -9999 -9999 -9999 -9999 -9999 -9999 -9999 -9999 -9999 -9999 -9999 -9999 -9999 -9999 -9999 -9999 -9999 -9999 -9999 -9999 -9999 -9999 -9999 -9999 -9999 -9999 -9999 -9999 -9999 -9999 -9999 -9999 -9999 -9999 -9999 -9999 -9999 -9999 -9999 -9999 -9999 -9999 -9999 -9999 -9999 -9999 -9999 -9999 -9999 -9999 -9999 -9999 -9999 -9999 -9999 -9999 -9999 -9999 -9999 -9999 -9999 -9999 -9999 -9999 -9999 -9999 -9999 -9999 -9999 -9999 -9999 -9999 -9999 -9999 -9999 -9999 -9999 -9999 -9999 -9999 -9999
-9999 -9999 -9999 -9999 -9999 -9999 -9999 -9999 -9999 -9999 -9999 -9999 -9999 -9999 -9999 -9999 -9999 -9999 -9999 -9999 -9999 -9999 -9999 -9999 -9999 -9999 -9999 -9999 -9999 -9999 -9999 -9999 -9999 -9999 4366.104 4347.94 4357.017 4406.808 4409.388 4402.604 4402.157 4402.166 4402.171 4320 4320 4320.065 4318.301 4157.927 4176.698 3855.18 4032.406 4228.286 4262.081 4232.14 4180.287 4140.015 4112.806 4050.055 4025.619 3936.545 3919.856 3923.569 3923.886 3995.755 4050 4050 4050 4050 4050 4140 4140 4140 4140 4140 4140 4140 4140 4145.746 4143.26 4141.548 4140 4162.463 4229.34 4211.638 4219.02 4316.489 4374.652 4391.517 4380.204 4409.85 4385.293 4418.643 4471.963 4553.168 4269.882 4140 4305.248 4498.926 4410.459 4426.307 4445.88 4430.304 4409.32 4320.226 4278.119 4140 4182.499 4229.921 4230.492 4274.491 4319.82 4279.385 4222.099 3996.693 3870 -9999 -9999 -9999 -9999 -9999 -9999 -9999 -9999 -9999 -9999 -9999 -9999 -9999 -9999 -9999 -9999 -9999 -9999 -9999 -9999 -9999 -9999 -9999 -9999 -9999 -9999 -9999 -9999 -9999 -9999 -9999 -9999 -9999 -9999 -9999 -9999 -9999 -9999 -9999 -9999 -9999 -9999 -9999 -9999 -9999 -9999 -9999 -9999 -9999 -9999 -9999 -9999 -9999 -9999 -9999 -9999 -9999 -9999 -9999 -9999 -9999 -9999 -9999 -9999 -9999 -9999 -9999 -9999 -9999 -9999 -9999 -9999 -9999 -9999 -9999 -9999 -9999 -9999 -9999 -9999 -9999 -9999 -9999 -9999 -9999 -9999 -9999 -9999 -9999 -9999 -9999 -9999 -9999 -9999 -9999 -9999 -9999 -9999 -9999 -9999 -9999 -9999 -9999 -9999 -9999 -9999
-9999 -9999 -9999 -9999 -9999 -9999 -9999 -9999 -9999 -9999 -9999 -9999 -9999 -9999 -9999 -9999 -9999 -9999 -9999 -9999 -9999 -9999 -9999 -9999 -9999 -9999 -9999 -9999 -9999 -9999 -9999 -9999 -9999 -9999 4403.464 4402.687 4409.982 4402.098 4402.117 4402.136 4405.588 4408.702 4402.177 4320 4320.037 4349.189 4368.818 4320.292 4321.317 4176.611 3855.655 4108.206 4226.513 4224.603 4174.162 4139.994 4101.82 4049.997 4016.601 3963.911 3939.78 3928.201 3932.544 3986.433 4035.213 4050 4050.022 4070.266 4086.417 4140 4140.009 4143.554 4140 4140 4140.008 4140 4140 4140 4140 4140 4182.786 4229.866 4276.453 4290.514 4319.788 4357.703 4366.572 4347.222 4320.068 4343.621 4338.422 4332.346 4352.242 4387.394 4140 4268.303 4494.572 4454.758 4367.538 4409.987 4400.379 4350.155 4320.161 4322.955 4318.313 4140 4229.472 4221.355 4207.86 4229.994 4251.859 4229.919 4221.122 4080.011 3870 -9999 -9999 -9999 -9999 -9999 -9999 -9999 -9999 -9999 -9999 -9999 -9999 -9999 -9999 -9999 -9999 -9999 -9999 -9999 -9999 -9999 -9999 -9999 -9999 -9999 -9999 -9999 -9999 -9999 -9999 -9999 -9999 -9999 -9999 -9999 -9999 -9999 -9999 -9999 -9999 -9999 -9999 -9999 -9999 -9999 -9999 -9999 -9999 -9999 -9999 -9999 -9999 -9999 -9999 -9999 -9999 -9999 -9999 -9999 -9999 -9999 -9999 -9999 -9999 -9999 -9999 -9999 -9999 -9999 -9999 -9999 -9999 -9999 -9999 -9999 -9999 -9999 -9999 -9999 -9999 -9999 -9999 -9999 -9999 -9999 -9999 -9999 -9999 -9999 -9999 -9999 -9999 -9999 -9999 -9999 -9999 -9999 -9999 -9999 -9999 -9999 -9999 -9999 -9999 -9999 -9999
-9999 -9999 -9999 -9999 -9999 -9999 -9999 -9999 -9999 -9999 -9999 -9999 -9999 -9999 -9999 -9999 -9999 -9999 -9999 -9999 -9999 -9999 -9999 -9999 -9999 -9999 -9999 -9999 -9999 -9999 -9999 -9999 -9999 -9999 4412.396 4410 4402.076 4403.039 4404.106 4410 4410 4399.776 4366.573 4320 4334.024 4363.924 4380.92 4357.711 4319.929 4230.252 4107.777 3856.146 4108.012 4171.246 4140.045 4135.796 4102.393 4050.08 4024.432 3983.432 3956.545 3931.773 3962.105 4008.831 4050.019 4079.179 4092.666 4102.849 4111.506 4140.017 4147.481 4132.688 4139.999 4140.017 4140.016 4150.004 4156.841 4163.561 4173.813 4229.524 4230.076 4264.985 4300.118 4319.997 4334.142 4346.219 4339.092 4320.006 4312.204 4320 4305.495 4233.081 4176.214 4140 4393.992 4410.112 4468.279 4322.481 4320.1 4409.816 4410 4371.096 4320.096 4320 4312.443 4228.61 4140 4153.792 4169.019 4192.167 4229.918 4262.349 4289.621 4207.61 3870 4213.773 4300.858 4320.126 -9999 -9999 -9999 -9999 -9999 -9999 -9999 -9999 -9999 -9999 -9999 -9999 -9999 -9999 -9999 -9999 -9999 -9999 -9999 -9999 -9999 -9999 -9999 -9999 -9999 -9999 -9999 -9999 -9999 -9999 -9999 -9999 -9999 -9999 -9999 -9999 -9999 -9999 -9999 -9999 -9999 -9999 -9999 -9999 -9999 -9999 -9999 -9999 -9999 -9999 -9999 -9999 -9999 -9999 -9999 -9999 -9999 -9999 -9999 -9999 -9999 -9999 -9999 -9999 -9999 -9999 -9999 -9999 -9999 -9999 -9999 -9999 -9999 -9999 -9999 -9999 -9999 -9999 -9999 -9999 -9999 -9999 -9999 -9999 -9999 -9999 -9999 -9999 -9999 -9999 -9999 -9999 -9999 -9999 -9999 -9999 -9999 -9999 -9999 -9999 -9999 -9999 -9999
-9999 -9999 -9999 -9999 -9999 -9999 -9999 -9999 -9999 -9999 -9999 -9999 -9999 -9999 -9999 -9999 -9999 -9999 -9999 -9999 -9999 -9999 -9999 -9999 -9999 -9999 -9999 -9999 -9999 -9999 -9999 -9999 -9999 -9999 4407.884 4402.062 4409.999 4410 4410.003 4421.603 4424.872 4409.998 4383.943 4320 4340.562 4359.449 4359.614 4319.531 4230.633 4132.275 4023.595 4147.943 3856.647 4112.435 4147.913 4154.652 4124.578 4086.298 4049.92 3988.032 3936.436 3951.988 4008.82 4050.005 4087.472 4121.145 4139.977 4139.994 4140.052 4181.021 4184.908 4140.279 4168.506 4190.091 4187.163 4184.907 4189.602 4204.406 4229.941 4256.393 4265.327 4287.245 4309.235 4319.615 4320.001 4325.432 4320.001 4319.063 4326.318 4336.855 4319.738 4183.467 4140 4140 4325.288 4355.115 4321.06 4303.845 4320.018 4382.81 4409.969 4409.898 4378.564 4320.177 4299.745 4230.002 4158.401 4140 4148.664 4158.213 4174.82 4229.885 4228.59 4011.943 3870 4221.723 4320.26 4376.852 4409.902 -9999 -9999 -9999 -9999 -9999 -9999 -9999 -9999 -9999 -9999 -9999 -9999 -9999 -9999 -9999 -9999 -9999 -9999 -9999 -9999 -9999 -9999 -9999 -9999 -9999 -9999 -9999 -9999 -9999 -9999 -9999 -9999 -9999 -9999 -9999 -9999 -9999 -9999 -9999 -9999 -9999 -9999 -9999 -9999 -9999 -9999 -9999 -9999 -9999 -9999 -9999 -9999 -9999 -9999 -9999 -9999 -9999 -9999 -9999 -9999 -9999 -9999 -9999 -9999 -9999 -9999 -9999 -9999 -9999 -9999 -9999 -9999 -9999 -9999 -9999 -9999 -9999 -9999 -9999 -9999 -9999 -9999 -9999 -9999 -9999 -9999 -9999 -9999 -9999 -9999 -9999 -9999 -9999 -9999 -9999 -9999 -9999 -9999 -9999 -9999 -9999 -9999
-9999 -9999 -9999 -9999 -9999 -9999 -9999 -9999 -9999 -9999 -9999 -9999 -9999 -9999 -9999 -9999 -9999 -9999 -9999 -9999 -9999 -9999 -9999 -9999 -9999 -9999 -9999 -9999 -9999 -9999 -9999 -9999 -9999 -9999 4406.94 4404.376 4412.377 4419.024 4426.01 4431.228 4432.28 4401.359 4409.527 4320 4328.583 4338.49 4319.797 4251.074 4236.794 4229.446 4176.62 4243.819 4158.404 3857.153 4036.035 4122.917 4110.899 4098.139 4050.073 3990.29 3939.542 3970.392 4049.75 4077.105 4107.347 4139.989 4148.575 4156.346 4171.851 4229.934 4230.182 4229.844 4229.984 4230.013 4229.982 4216.93 4216.439 4229.999 4248.566 4262.991 4280.49 4299.329 4314.844 4320 4318.909 4320 4319.185 4322.456 4328.849 4324.909 4314.008 4140 4140 4214.383 4310.342 4319.89 4289.139 4319.97 4332.51 4352.479 4345.091 4320.796 4409.715 4366.964 4319.955 4230.121 4178.74 4152.807 4140 4144.37 4149.162 4155.625 4140.368 3870 3933.621 4226.122 4320.271 4383.24 4425.864 4409.981 -9999 -9999 -9999 -9999 -9999 -9999 -9999 -9999 -9999 -9999 -9999 -9999 -9999 -9999 -9999 -9999 -9999 -9999 -9999 -9999 -9999 -9999 -9999 -9999 -9999 -9999 -9999 -9999 -9999 -9999 -9999 -9999 -9999 -9999 -9999 -9999 -9999 -9999 -9999 -9999 -9999 -9999 -9999 -9999 -9999 -9999 -9999 -9999 -9999 -9999 -9999 -9999 -9999 -9999 -9999 -9999 -9999 -9999 -9999 -9999 -9999 -9999 -9999 -9999 -9999 -9999 -9999 -9999 -9999 -9999 -9999 -9999 -9999 -9999 -9999 -9999 -9999 -9999 -9999 -9999 -9999 -9999 -9999 -9999 -9999 -9999 -9999 -9999 -9999 -9999 -9999 -9999 -9999 -9999 -9999 -9999 -9999 -9999 -9999 -9999 -9999
-9999 -9999 -9999 -9999 -9999 -9999 -9999 -9999 -9999 -9999 -9999 -9999 -9999 -9999 -9999 -9999 -9999 -9999 -9999 -9999 -9999 -9999 -9999 -9999 -9999 -9999 -9999 -9999 -9999 -9999 -9999 -9999 -9999 4409.661 4407.301 4407.504 4413.15 4420.436 4427.583 4409.914 4409.319 4320 4320 4322.627 4325.335 4319.972 4278.47 4264.331 4262.701 4257.708 4230.072 4230.007 4216.368 4073.583 3857.659 4039.244 4029.25 4087.352 4049.925 3976.142 3942.445 3950.314 4001.684 4050.04 4084.59 4112.847 4139.801 4139.99 4140.094 4196.833 4230.001 4247.981 4255.485 4254.016 4245.227 4230.001 4230.001 4244.587 4262.193 4276.854 4292.894 4307.602 4320 4321.568 4320 4319.807 4320 4320 4314.987 4223.119 4140 4312.799 4293.307 4296.595 4319.223 4272.886 4319.911 4335.552 4341.545 4342.859 4320.005 4290.44 4320.294 4345.888 4319.347 4230.179 4201.047 4166.961 4140.004 4140 4146.45 4140.305 4011.865 3870 3997.462 4228.79 4319.95 4359.794 4409.991 -9999 -9999 -9999 -9999 -9999 -9999 -9999 -9999 -9999 -9999 -9999 -9999 -9999 -9999 -9999 -9999 -9999 -9999 -9999 -9999 -9999 -9999 -9999 -9999 -9999 -9999 -9999 -9999 -9999 -9999 -9999 -9999 -9999 -9999 -9999 -9999 -9999 -9999 -9999 -9999 -9999 -9999 -9999 -9999 -9999 -9999 -9999 -9999 -9999 -9999 -9999 -9999 -9999 -9999 -9999 -9999 -9999 -9999 -9999 -9999 -9999 -9999 -9999 -9999 -9999 -9999 -9999 -9999 -9999 -9999 -9999 -9999 -9999 -9999 -9999 -9999 -9999 -9999 -9999 -9999 -9999 -9999 -9999 -9999 -9999 -9999 -9999 -9999 -9999 -9999 -9999 -9999 -9999 -9999 -9999 -9999 -9999 -9999 -9999 -9999 -9999 -9999
-9999 -9999 -9999 -9999 -9999 -9999 -9999 -9999 -9999 -9999 -9999 -9999 -9999 -9999 -9999 -9999 -9999 -9999 -9999 -9999 -9999 -9999 -9999 -9999 -9999 -9999 -9999 -9999 -9999 -9999 -9999 -9999 -9999 4410.879 4409.244 4409.019 4409.998 4410.001 4409.775 4320 4320 4320 4312.572 4318.056 4320 4303.259 4284.768 4291.207 4290.652 4272.081 4250.416 4230.009 4218.381 4161.288 4078.075 3858.158 3858.533 4043.259 4009.334 3965.796 3947.499 3947.053 3960.139 4035.693 4050.001 4050.023 4050.252 4083.563 4088.462 4139.271 4198.226 4230.017 4253.339 4260.066 4249.892 4237.588 4240.917 4256.829 4275.443 4291.176 4305.016 4312.528 4320 4320.856 4320 4319.97 4320 4320 4320 4140 4311.546 4393.33 4370.72 4320.056 4272.372 4259.933 4319.997 4331.136 4337.452 4342.946 4319.972 4279.815 4320 4319.828 4230.635 4223.656 4229.968 4182.47 4140.008 4140 4140 4140.22 4131.45 3870 4040.694 4229.471 4303.493 4320.328 4409.727 -9999 -9999 -9999 -9999 -9999 -9999 -9999 -9999 -9999 -9999 -9999 -9999 -9999 -9999 -9999 -9999 -9999 -9999 -9999 -9999 -9999 -9999 -9999 -9999 -9999 -9999 -9999 -9999 -9999 -9999 -9999 -9999 -9999 -9999 -9999 -9999 -9999 -9999 -9999 -9999 -9999 -9999 -9999 -9999 -9999 -9999 -9999 -9999 -9999 -9999 -9999 -9999 -9999 -9999 -9999 -9999 -9999 -9999 -9999 -9999 -9999 -9999 -9999 -9999 -9999 -9999 -9999 -9999 -9999 -9999 -9999 -9999 -9999 -9999 -9999 -9999 -9999 -9999 -9999 -9999 -9999 -9999 -9999 -9999 -9999 -9999 -9999 -9999 -9999 -9999 -9999 -9999 -9999 -9999 -9999 -9999 -9999 -9999 -9999 -9999 -9999 -9999
-9999 -9999 -9999 -9999 -9999 -9999 -9999 -9999 -9999 -9999 -9999 -9999 -9999 -9999 -9999 -9999 -9999 -9999 -9999 -9999 -9999 -9999 -9999 -9999 -9999 -9999 -9999 -9999 -9999 -9999 -9999 -9999 -9999 -9999 4411.537 4411.438 4410 4405.644 4384.446 4326.129 4313.927 4320.132 4314.819 4317.477 4319.999 4303.259 4319.98 4320.912 4314.891 4270.087 4254.499 4229.938 4183.923 4140.07 4131.107 4043.877 3906.084 3859.004 3891.016 3926.417 3952.137 3953.175 3952.226 4035.887 4035.518 4035.056 4034.389 4033.639 4032.681 4031.511 4137.637 4188.443 4229.981 4252.285 4243.942 4235.811 4246.415 4267.376 4289.001 4305.773 4319.997 4320.004 4324.132 4321.139 4319.441 4320 4320 4319.887 4234.485 4123.282 4140 4313.629 4358.6 4331.465 4274.963 4245.621 4319.639 4311.607 4303.018 4319.842 4289.816 4230.241 4319.534 4292.185 4230.013 4233.75 4229.99 4183.779 4140.007 4141.506 4140 4139.881 3998.25 3870 4042.679 4229.355 4319.943 4360.702 4411.055 4499.77 -9999 -9999 -9999 -9999 -9999 -9999 -9999 -9999 -9999 -9999 -9999 -9999 -9999 -9999 -9999 -9999 -9999 -9999 -9999 -9999 -9999 -9999 -9999 -9999 -9999 -9999 -9999 -9999 -9999 -9999 -9999 -9999 -9999 -9999 -9999 -9999 -9999 -9999 -9999 -9999 -9999 -9999 -9999 -9999 -9999 -9999 -9999 -9999 -9999 -9999 -9999 -9999 -9999 -9999 -9999 -9999 -9999 -9999 -9999 -9999 -9999 -9999 -9999 -9999 -9999 -9999 -9999 -9999 -9999 -9999 -9999 -9999 -9999 -9999 -9999 -9999 -9999 -9999 -9999 -9999 -9999 -9999 -9999 -9999 -9999 -9999 -9999 -9999 -9999 -9999 -9999 -9999 -9999 -9999 -9999 -9999 -9999 -9999 -9999 -9999 -9999
-9999 -9999 -9999 -9999 -9999 -9999 -9999 -9999 -9999 -9999 -9999 -9999 -9999 -9999 -9999 -9999 -9999 -9999 -9999 -9999 -9999 -9999 -9999 -9999 -9999 -9999 -9999 -9999 -9999 -9999 -9999 -9999 -9999 -9999 -9999 4415.855 4416.041 4409.997 4381.55 4341.389 4324.08 4321.719 4320.11 4317.5 4320 4320 4328.798 4320.01 4319.487 4230.346 4229.917 4186.697 4140.07 4131.886 4142.23 4115.467 4048.56 3949.475 3859.454 3907.173 3959.916 3960 3955.617 4009.171 4049.975 4050 4052.363 4066.737 4139.266 4138.082 4029.708 4107.233 4174.102 4229.888 4230.001 4230.006 4254.234 4279.762 4303.104 4320.005 4337.699 4343.814 4340.772 4324.826 4318.936 4319.201 4319.887 4319.972 4251.708 4207.66 4229.177 4140 4272.14 4289.103 4242.024 4229.804 4230.238 4229.825 4207.861 4229.827 4226.732 4205.979 4230.203 4229.945 4204.813 4229.933 4213.99 4177.783 4140.015 4143.17 4140 4140 3870 4124.757 4125.021 4229.562 4319.807 4409.642 4499.542 4526.317 -9999 -9999 -9999 -9999 -9999 -9999 -9999 -9999 -9999 -9999 -9999 -9999 -9999 -9999 -9999 -9999 -9999 -9999 -9999 -9999 -9999 -9999 -9999 -9999 -9999 -9999 -9999 -9999 -9999 -9999 -9999 -9999 -9999 -9999 -9999 -9999 -9999 -9999 -9999 -9999 -9999 -9999 -9999 -9999 -9999 -9999 -9999 -9999 -9999 -9999 -9999 -9999 -9999 -9999 -9999 -9999 -9999 -9999 -9999 -9999 -9999 -9999 -9999 -9999 -9999 -9999 -9999 -9999 -9999 -9999 -9999 -9999 -9999 -9999 -9999 -9999 -9999 -9999 -9999 -9999 -9999 -9999 -9999 -9999 -9999 -9999 -9999 -9999 -9999 -9999 -9999 -9999 -9999 -9999 -9999 -9999 -9999 -9999 -9999 -9999 -9999
-9999 -9999 -9999 -9999 -9999 -9999 -9999 -9999 -9999 -9999 -9999 -9999 -9999 -9999 -9999 -9999 -9999 -9999 -9999 -9999 -9999 -9999 -9999 -9999 -9999 -9999 -9999 -9999 -9999 -9999 -9999 -9999 -9999 -9999 -9999 4419.52 4418.862 4410.001 4381.622 4348.98 4329.595 4322.214 4319.986 4320.069 4327.739 4329.257 4319.964 4277.024 4230.373 4192.438 4182.715 4140.063 4116.727 4118.28 4129.874 4125.747 4101.063 4049.489 3949.733 3859.878 3907.394 3959.911 4004.906 4049.932 4060.721 4069.171 4097.433 4140.376 4195.965 4199.296 4137.791 4027.593 4095.921 4173.536 4229.986 4252 4273.615 4296.488 4319.997 4339.559 4361.012 4374.89 4369.058 4329.984 4318.478 4319.06 4326.455 4319.983 4252.858 4229.996 4220.959 4163.62 4140 4140.047 4140.092 4140.088 4140.076 4144.769 4135.256 4140.192 4171.714 4182.918 4184.582 4169.628 4140.079 4168.77 4179.175 4176.249 4159.933 4139.96 4075.408 3972.069 3870 4133.994 4043.836 4142.502 4230.475 4319.922 4410.321 4454.862 4498.971 4516.749 4500.023 4539.248 4453.175 4307.862 -9999 -9999 -9999 -9999 -9999 -9999 -9999 -9999 -9999 -9999 -9999 -9999 -9999 -9999 -9999 -9999 -9999 -9999 -9999 -9999 -9999 -9999 -9999 -9999 -9999 -9999 -9999 -9999 -9999 -9999 -9999 -9999 -9999 -9999 -9999 -9999 -9999 -9999 -9999 -9999 -9999 -9999 -9999 -9999 -9999 -9999 -9999 -9999 -9999 -9999 -9999 -9999 -9999 -9999 -9999 -9999 -9999 -9999 -9999 -9999 -9999 -9999 -9999 -9999 -9999 -9999 -9999 -9999 -9999 -9999 -9999 -9999 -9999 -9999 -9999 -9999 -9999 -9999 -9999 -9999 -9999 -9999 -9999 -9999 -9999 -9999 -9999 -9999 -9999 -9999 -9999 -9999 -9999 -9999 -9999
-9999 -9999 -9999 -9999 -9999 -9999 -9999 -9999 -9999 -9999 -9999 -9999 -9999 -9999 -9999 -9999 -9999 -9999 -9999 -9999 -9999 -9999 -9999 -9999 -9999 -9999 -9999 -9999 -9999 -9999 -9999 -9999 -9999 -9999 -9999 4424.711 4418.815 4409.986 4377.287 4347.351 4329.715 4322.694 4322.649 4332.827 4334.741 4319.99 4280.583 4230.02 4189.333 4160.569 4140.011 4113.311 4098.205 4097.238 4101.597 4097.732 4096.211 4088.894 4049.529 3957.579 3860.271 3933.302 4049.517 4049.772 4050.004 4072.343 4140.123 4229.603 4237.259 4221.644 4165.098 4077.634 4025.168 4121.424 4229.876 4264.802 4282.239 4298.967 4319.998 4343.893 4374.918 4404.061 4409.891 4344.739 4318.145 4321.975 4327.264 4319.813 4230.295 4223.438 4215.168 4189.727 4182.756 4140 4140 4140 4125.543 4114.874 4102.881 4104.767 4139.66 4170.258 4164.772 4152.399 4139.999 4140.005 4155.331 4182.836 4179.395 4139.96 4064.416 3966.773 3870 3961.264 4043.836 4127.037 4198.314 4230.577 4319.61 4320.368 4345.631 4498.461 4517.506 4558.397 4403.513 3960 4386.249 -9999 -9999 -9999 -9999 -9999 -9999 -9999 -9999 -9999 -9999 -9999 -9999 -9999 -9999 -9999 -9999 -9999 -9999 -9999 -9999 -9999 -9999 -9999 -9999 -9999 -9999 -9999 -9999 -9999 -9999 -9999 -9999 -9999 -9999 -9999 -9999 -9999 -9999 -9999 -9999 -9999 -9999 -9999 -9999 -9999 -9999 -9999 -9999 -9999 -9999 -9999 -9999 -9999 -9999 -9999 -9999 -9999 -9999 -9999 -9999 -9999 -9999 -9999 -9999 -9999 -9999 -9999 -9999 -9999 -9999 -9999 -9999 -9999 -9999 -9999 -9999 -9999 -9999 -9999 -9999 -9999 -9999 -9999 -9999 -9999 -9999 -9999 -9999 -9999 -9999 -9999 -9999 -9999 -9999
-9999 -9999 -9999 -9999 -9999 -9999 -9999 -9999 -9999 -9999 -9999 -9999 -9999 -9999 -9999 -9999 -9999 -9999 -9999 -9999 -9999 -9999 -9999 -9999 -9999 -9999 -9999 -9999 -9999 -9999 -9999 -9999 -9999 -9999 4442.661 4435.838 4410 4388.414 4359.835 4336.48 4326.286 4324.974 4334.498 4340.074 4319.778 4287.394 4230.064 4184.418 4160.761 4139.997 4117.846 4095.984 4080.232 4073.092 4069.102 4050.039 4050.033 4049.943 3979.554 3860.632 3959.018 3924.91 4010.624 4049.951 4037.646 4050.141 4139.387 4229.99 4230.003 4219.85 4168.147 4089.432 4023.202 4096.786 4230.008 4250.346 4261.383 4273.485 4291.816 4320.004 4362.821 4410.004 4423.917 4409.53 4317.931 4306.777 4307.338 4299.832 4274.943 4251.856 4229.998 4209.752 4230.013 4229.142 4140.6 4140.002 4139.999 4139.876 4087.104 4064.972 4050.513 4139.176 4140.018 4139.999 4134.247 4130.253 4140.044 4202.875 4204.218 4139.99 4073.734 3986.565 3870 3952.572 4043.836 4140.108 4229.764 4244.975 4283.955 4295.208 4320.101 4409.951 4410.215 4413.416 4504.228 3960 4262.605 -9999 -9999 -9999 -9999 -9999 -9999 -9999 -9999 -9999 -9999 -9999 -9999 -9999 -9999 -9999 -9999 -9999 -9999 -9999 -9999 -9999 -9999 -9999 -9999 -9999 -9999 -9999 -9999 -9999 -9999 -9999 -9999 -9999 -9999 -9999 -9999 -9999 -9999 -9999 -9999 -9999 -9999 -9999 -9999 -9999 -9999 -9999 -9999 -9999 -9999 -9999 -9999 -9999 -9999 -9999 -9999 -9999 -9999 -9999 -9999 -9999 -9999 -9999 -9999 -9999 -9999 -9999 -9999 -9999 -9999 -9999 -9999 -9999 -9999 -9999 -9999 -9999 -9999 -9999 -9999 -9999 -9999 -9999 -9999 -9999 -9999 -9999 -9999 -9999 -9999 -9999 -9999 -9999 -9999
-9999 -9999 -9999 -9999 -9999 -9999 -9999 -9999 -9999 -9999 -9999 -9999 -9999 -9999 -9999 -9999 -9999 -9999 -9999 -9999 -9999 -9999 -9999 -9999 -9999 -9999 -9999 -9999 -9999 -9999 -9999 -9999 -9999 -9999 -9999 4461.721 4410.115 4378.583 4346.922 4323.996 4319.999 4320.001 4333.096 4319.716 4230.713 4229.228 4178.832 4140.032 4139.993 4124.529 4103.972 4082.744 4064.035 4050.006 4049.961 4030.873 4027.377 4017.951 3959.859 3860.864 3959.905 3959.618 3983.39 4001.36 4006.674 4028.858 4081.801 4229.393 4247.753 4229.978 4175.551 4094.438 4021.029 4059.201 4226.28 4183.483 4198.892 4214.594 4233.058 4264.165 4320.192 4409.646 4436.607 4410.032 4347.147 4317.791 4300.051 4275.006 4267.34 4274.982 4256.925 4230.447 4275.887 4275.802 4229.578 4189.178 4166.08 4156.257 4227.572 4082.304 4049.975 4050.329 4109.423 4129.101 4140.003 4139.995 4140.125 4229.584 4229.774 4141.413 4092.029 4046.016 3870 3976.255 4043.836 4139.904 4198.284 4229.966 4271.239 4308.628 4338.268 4379.982 4378.772 4388.365 4321.748 3960 4301.057 4368.921 -9999 -9999 -9999 -9999 -9999 -9999 -9999 -9999 -9999 -9999 -9999 -9999 -9999 -9999 -9999 -9999 -9999 -9999 -9999 -9999 -9999 -9999 -9999 -9999 -9999 -9999 -9999 -9999 -9999 -9999 -9999 -9999 -9999 -9999 -9999 -9999 -9999 -9999 -9999 -9999 -9999 -9999 -9999 -9999 -9999 -9999 -9999 -9999 -9999 -9999 -9999 -9999 -9999 -9999 -9999 -9999 -9999 -9999 -9999 -9999 -9999 -9999 -9999 -9999 -9999 -9999 -9999 -9999 -9999 -9999 -9999 -9999 -9999 -9999 -9999 -9999 -9999 -9999 -9999 -9999 -9999 -9999 -9999 -9999 -9999 -9999 -9999 -9999 -9999 -9999 -9999 -9999 -9999
-9999 -9999 -9999 -9999 -9999 -9999 -9999 -9999 -9999 -9999 -9999 -9999 -9999 -9999 -9999 -9999 -9999 -9999 -9999 -9999 -9999 -9999 -9999 -9999 -9999 -9999 -9999 -9999 -9999 -9999 -9999 -9999 -9999 -9999 -9999 4499.981 4461.432 4410.343 4358.467 4320.009 4311.674 4318.674 4319.976 4278.081 4229.486 4140.409 4140.031 4116.366 4125.73 4114.01 4094.058 4073.462 4050.009 4019.919 4004.284 3997.31 4003.62 3998.394 3959.335 3861.065 3959.487 3972.583 3960.006 3960.019 3985.729 4049.849 4139.275 4230.037 4251.119 4230.019 4197.54 4133.522 4072.679 4017.727 4042.945 4010.441 4097.783 4129.878 4148.481 4173.366 4224.651 4319.453 4409.681 4408.966 4379.562 4371.223 4336.347 4291.807 4275.137 4310.915 4319.908 4340.364 4364.707 4311.901 4230.514 4229.499 4218.824 4229.923 4252.215 4183.205 4050.619 4039.722 4116.764 4140.157 4173.924 4166.712 4140.142 4140.181 4170.627 4227.955 4051.517 3915.432 3870 4043.836 4093.695 4141.91 4140.04 4164.514 4229.775 4301.197 4325.796 4336.778 4320.363 4379.266 4282 3960 4170.147 -9999 -9999 -9999 -9999 -9999 -9999 -9999 -9999 -9999 -9999 -9999 -9999 -9999 -9999 -9999 -9999 -9999 -9999 -9999 -9999 -9999 -9999 -9999 -9999 -9999 -9999 -9999 -9999 -9999 -9999 -9999 -9999 -9999 -9999 -9999 -9999 -9999 -9999 -9999 -9999 -9999 -9999 -9999 -9999 -9999 -9999 -9999 -9999 -9999 -9999 -9999 -9999 -9999 -9999 -9999 -9999 -9999 -9999 -9999 -9999 -9999 -9999 -9999 -9999 -9999 -9999 -9999 -9999 -9999 -9999 -9999 -9999 -9999 -9999 -9999 -9999 -9999 -9999 -9999 -9999 -9999 -9999 -9999 -9999 -9999 -9999 -9999 -9999 -9999 -9999 -9999 -9999 -9999 -9999
-9999 -9999 -9999 -9999 -9999 -9999 -9999 -9999 -9999 -9999 -9999 -9999 -9999 -9999 -9999 -9999 -9999 -9999 -9999 -9999 -9999 4263.926 -9999 -9999 -9999 -9999 -9999 -9999 -9999 -9999 -9999 -9999 -9999 -9999 4424.583 4456.646 4499.987 4499.534 4410.758 4349.029 4320.024 4319.996 4294.636 4230.114 4224.751 4229.83 4229.42 4140.91 4139.984 4111.787 4086.099 4067.472 4049.928 3989.425 3960.022 3960.011 3974.873 3959.936 3897.708 3861.236 3896.068 3959.916 3954.106 3947.09 3960.042 4023.419 4110.509 4229.834 4254.416 4242.941 4229.939 4176.843 4132.27 4071.069 4014.144 4010.359 4006.349 4045.773 4059.296 4066.332 4085.847 4152.484 4320.949 4390.892 4410.397 4454.578 4410.08 4350.87 4357.7 4380.644 4320.106 4432.417 4438.403 4364.749 4319.867 4305.807 4251.165 4230 4230 4198.205 4094.997 4035.771 4028.388 4182.026 4229.988 4230.01 4229.435 4140.442 4096.023 4052.183 3956.537 3870 3997.774 4096.497 4138.806 4139.536 4055.577 4052.533 4115.276 4225.515 4228.355 4223.004 4157.799 4246.066 3960 3960 4303.388 -9999 -9999 -9999 -9999 -9999 -9999 -9999 -9999 -9999 -9999 -9999 -9999 -9999 -9999 -9999 -9999 -9999 -9999 -9999 -9999 -9999 -9999 -9999 -9999 -9999 -9999 -9999 -9999 -9999 -9999 -9999 -9999 -9999 -9999 -9999 -9999 -9999 -9999 -9999 -9999 -9999 -9999 -9999 -9999 -9999 -9999 -9999 -9999 -9999 -9999 -9999 -9999 -9999 -9999 -9999 -9999 -9999 -9999 -9999 -9999 -9999 -9999 -9999 -9999 -9999 -9999 -9999 -9999 -9999 -9999 -9999 -9999 -9999 -9999 -9999 -9999 -9999 -9999 -9999 -9999 -9999 -9999 -9999 -9999 -9999 -9999 -9999 -9999 -9999 -9999 -9999 -9999 -9999 -9999
-9999 -9999 -9999 -9999 -9999 -9999 -9999 -9999 -9999 -9999 -9999 -9999 -9999 -9999 -9999 -9999 4341.773 4320.012 4300.535 4282.886 4269.144 4262.176 4265.381 4283.011 4319.887 4351.003 4409.992 -9999 -9999 -9999 -9999 -9999 -9999 -9999 4275.24 4356.51 4472.723 4519.186 4499.56 4410.951 4365.431 4341.121 4319.949 4267.1 4230.044 4229.516 4230.011 4229.524 4140.268 4098.881 4070.068 4050.007 4031.361 3960.122 3948.755 3951.193 3959.983 3930.846 3883.091 3861.405 3883.791 3927.721 3942.366 3948.661 3960.008 4010.171 4095.57 4229.761 4244.383 4230.002 4220.846 4206.534 4230.083 4229.477 4240.045 4309.655 4148.032 4001.992 3998.852 3995.573 3992.133 3989.195 4284.107 4411.858 4499.906 4538.283 4499.747 4410.605 4455.258 4499.017 4359.996 4557.403 4499.494 4321.811 4326.478 4349.514 4251.515 4230.402 4230.768 4229.763 4145.525 4094.357 4019.359 4052.288 4183.026 4248.621 4266.684 4183.474 4049.865 3955.436 3870 4042.908 4138.999 4140.096 4138.817 4044.938 3960 3960 3960 3991.108 3976.332 3960 3960 3960 3960 4278.578 4396.777 -9999 -9999 -9999 -9999 -9999 -9999 -9999 -9999 -9999 -9999 -9999 -9999 -9999 -9999 -9999 -9999 -9999 -9999 -9999 -9999 -9999 -9999 -9999 -9999 -9999 -9999 -9999 -9999 -9999 -9999 -9999 -9999 -9999 -9999 -9999 -9999 -9999 -9999 -9999 -9999 -9999 -9999 -9999 -9999 -9999 -9999 -9999 -9999 -9999 -9999 -9999 -9999 -9999 -9999 -9999 -9999 -9999 -9999 -9999 -9999 -9999 -9999 -9999 -9999 -9999 -9999 -9999 -9999 -9999 -9999 -9999 -9999 -9999 -9999 -9999 -9999 -9999 -9999 -9999 -9999 -9999 -9999 -9999 -9999 -9999 -9999 -9999 -9999 -9999 -9999 -9999 -9999 -9999 -9999
-9999 -9999 -9999 -9999 -9999 -9999 -9999 -9999 -9999 -9999 -9999 -9999 -9999 -9999 4409.963 4395.604 4365.08 4339.938 4316.683 4292.955 4271.319 4255.188 4246.915 4247.394 4262.46 4321.293 4409.317 4415.6 -9999 -9999 -9999 -9999 4503.76 4350.641 4099.64 4274.641 4457.117 4506.804 4538.369 4499.485 4410.05 4353.138 4339.697 4319.933 4275.657 4230.081 4199.176 4140.357 4116.702 4086.717 4058.422 4050.001 4049.884 3984.815 3959.984 3940.108 3930.211 3905.014 3873.32 3861.54 3877.395 3908.697 3935.411 3959.993 3972.654 4009.337 4094.789 4229.583 4230.001 4231.662 4230.087 4230.632 4319.434 4309.077 4319.941 4320.027 4293.381 4308.627 4192.478 4147.942 4098.038 3986.304 3984.667 4435.531 4558.3 4606.66 4589.595 4500.946 4518.967 4410.048 4500.156 4568.958 4544.139 4395.013 4319.92 4245.596 4231.411 4363.478 4377.403 4232.684 4140.308 4050.549 4026.871 4005.456 4052.034 4183.572 4228.914 4098.787 3954.976 3870 4042.653 4139.73 4140.003 4167.307 4133.065 3960 4132.382 4137.148 4048.644 3960 3960 4086.832 4222.448 4227.89 4308.887 4321.899 4370.484 4361.581 -9999 -9999 -9999 -9999 -9999 -9999 -9999 -9999 -9999 -9999 -9999 -9999 -9999 -9999 -9999 -9999 -9999 -9999 -9999 -9999 -9999 -9999 -9999 -9999 -9999 -9999 -9999 -9999 -9999 -9999 -9999 -9999 -9999 -9999 -9999 -9999 -9999 -9999 -9999 -9999 -9999 -9999 -9999 -9999 -9999 -9999 -9999 -9999 -9999 -9999 -9999 -9999 -9999 -9999 -9999 -9999 -9999 -9999 -9999 -9999 -9999 -9999 -9999 -9999 -9999 -9999 -9999 -9999 -9999 -9999 -9999 -9999 -9999 -9999 -9999 -9999 -9999 -9999 -9999 -9999 -9999 -9999 -9999 -9999 -9999 -9999 -9999 -9999 -9999 -9999 -9999 -9999 -9999
-9999 -9999 -9999 -9999 -9999 -9999 -9999 -9999 -9999 -9999 -9999 -9999 -9999 -9999 4409.98 4410 4409.95 4365.068 4332.821 4301.002 4271.603 4248.307 4233.876 4226.1 4231.621 4408.058 4320.711 4368.543 4407.989 4410.182 4499.352 4582.499 4541.535 4410.298 4099.64 4336.264 4498.897 4455.369 4499.655 4409.926 4374.092 4320.076 4335.831 4339.98 4319.959 4274.274 4229.952 4170.697 4139.947 4093.069 4050.032 4038.19 3999.993 3960.017 3931.022 3908.521 3898.853 3884.077 3865.994 3861.639 3872.542 3895.042 3924.698 3959.991 3982.88 3998.775 4051.042 4199.55 4230.302 4275.129 4319.646 4319.857 4337.607 4320.245 4341.692 4331.16 4320.146 4364.375 4320.356 4319.942 4313.837 4136.162 3981.197 4276.795 4472.571 4590.173 4596.334 4590.022 4589.383 4479.256 4678.805 4546.332 4495.142 4430.317 4355.457 4232.324 4403.753 4499.266 4410.972 4318.762 4229.415 4139.562 4050.249 4003.828 3990.099 4050.75 4111.201 4136.998 3934.918 3870 4042.696 4135.653 4140.003 4138.943 3960 4132.373 4229.968 4230.806 4229.53 4226.925 4227.014 4230.066 4258.936 4230.089 4304.374 4319.844 4320.032 4320.012 4316.22 -9999 -9999 4357.366 4377.039 -9999 -9999 -9999 -9999 -9999 -9999 -9999 -9999 -9999 -9999 -9999 -9999 -9999 -9999 -9999 -9999 -9999 -9999 -9999 -9999 -9999 -9999 -9999 -9999 -9999 -9999 -9999 -9999 -9999 -9999 -9999 -9999 -9999 -9999 -9999 -9999 -9999 -9999 -9999 -9999 -9999 -9999 -9999 -9999 -9999 -9999 -9999 -9999 -9999 -9999 -9999 -9999 -9999 -9999 -9999 -9999 -9999 -9999 -9999 -9999 -9999 -9999 -9999 -9999 -9999 -9999 -9999 -9999 -9999 -9999 -9999 -9999 -9999 -9999 -9999 -9999 -9999 -9999 -9999 -9999 -9999 -9999 -9999 -9999 -9999 -9999 -9999 -9999
-9999 -9999 -9999 -9999 -9999 -9999 -9999 -9999 -9999 -9999 -9999 -9999 4413.887 4422.111 4409.996 4399.202 4397.804 4379.903 4340.396 4302.621 4268.405 4241.708 4230.001 4229.978 4199.484 4233.206 4319.248 4349.868 4409.781 4378.949 4412.307 4567.348 4447.661 4103.136 4369.625 4499.824 4411.051 4410.023 4407.994 4200.722 4319.967 4294.897 4319.927 4319.885 4301.48 4278.422 4229.785 4180.05 4140.006 4102.927 4072.063 4049.782 3960.378 3941.966 3897.979 3870.02 3869.991 3870 3870 3861.719 3869.999 3882.471 3910.708 3959.992 4019.106 4032.457 4095.406 4229.774 4319.498 4355.124 4372.177 4359.915 4374.634 4410.011 4410.099 4370.894 4372.912 4409.966 4395.834 4403.89 4415.443 4377.873 4278.759 3976.093 4330.904 4556.224 4548.647 4618.079 4651.786 4679.226 4564.267 4500.268 4472.746 4496.665 4498.899 4414.527 4499.674 4511.745 4406.921 4263.788 4218.39 4184.569 4100.22 4049.642 3978.347 4003.234 4027.226 4006.67 3870 4043.442 4120.43 4154.995 4155.028 4134.157 3960 4222.392 4284.13 4319.955 4295.208 4237.652 4185.807 4229.704 4229.743 4196.957 4229.446 4220.235 4246.246 4292.37 4320.286 -9999 -9999 4349.755 4359.073 -9999 -9999 -9999 -9999 -9999 -9999 -9999 -9999 -9999 -9999 -9999 -9999 -9999 -9999 -9999 -9999 -9999 -9999 -9999 -9999 -9999 -9999 -9999 -9999 -9999 -9999 -9999 -9999 -9999 -9999 -9999 -9999 -9999 -9999 -9999 -9999 -9999 -9999 -9999 -9999 -9999 -9999 -9999 -9999 -9999 -9999 -9999 -9999 -9999 -9999 -9999 -9999 -9999 -9999 -9999 -9999 -9999 -9999 -9999 -9999 -9999 -9999 -9999 -9999 -9999 -9999 -9999 -9999 -9999 -9999 -9999 -9999 -9999 -9999 -9999 -9999 -9999 -9999 -9999 -9999 -9999 -9999 -9999 -9999 -9999 -9999 -9999 -9999
-9999 -9999 -9999 -9999 -9999 -9999 -9999 -9999 -9999 -9999 -9999 -9999 -9999 4499.994 4410.553 4379.027 4360.977 4320.091 4317.75 4291.55 4259.508 4230.01 4215.851 4203.685 4188.6 4225.143 4239.687 4230.951 4319.532 4320.266 4404.13 4527.456 4499.964 4379.095 4108.821 4364.321 4412.145 4409.896 4312.23 3870 4301.071 4230.382 4251.133 4230.251 4230.16 4229.401 4140.753 4139.889 4111.98 4091.232 4071.653 4050.014 4002.417 3959.353 3870.173 3837.95 3838.079 3849.346 3861.782 3861.828 3865.667 3870.003 3895.235 3960.306 4087.603 4096.538 4179.326 4275.337 4371.151 4409.984 4409.981 4384.272 4410.178 4499.537 4499.732 4410.815 4410.026 4421.325 4410.004 4410.254 4410 4410.003 4351.259 4151.377 3970.608 4348.597 4503.965 4502.726 4462.338 4511.493 4587.739 4589.763 4589.954 4560.017 4589.539 4589.89 4545.146 4491.93 4320.751 4407.852 4231.802 4140.802 4098.382 4062.72 4049.441 3960.244 3974.155 3959.186 3870 4048.432 4134.51 4140.014 4096.655 3960 3980.261 4140.498 4232.024 4319.703 4273.998 4185.223 4140.452 4140.357 4140.278 4140.214 4140.166 4140.131 4190.232 4321.163 4409.586 4409.953 4354.509 4320.029 4332.967 -9999 -9999 -9999 -9999 -9999 -9999 -9999 -9999 -9999 -9999 -9999 -9999 -9999 -9999 -9999 -9999 -9999 -9999 -9999 -9999 -9999 -9999 -9999 -9999 -9999 -9999 -9999 -9999 -9999 -9999 -9999 -9999 -9999 -9999 -9999 -9999 -9999 -9999 -9999 -9999 -9999 -9999 -9999 -9999 -9999 -9999 -9999 -9999 -9999 -9999 -9999 -9999 -9999 -9999 -9999 -9999 -9999 -9999 -9999 -9999 -9999 -9999 -9999 -9999 -9999 -9999 -9999 -9999 -9999 -9999 -9999 -9999 -9999 -9999 -9999 -9999 -9999 -9999 -9999 -9999 -9999 -9999 -9999 -9999 -9999 -9999 -9999 -9999
-9999 -9999 -9999 -9999 -9999 -9999 -9999 -9999 -9999 -9999 -9999 -9999 -9999 4589.6 4500.529 4410.063 4380.229 4327.722 4319.956 4281.749 4252.176 4229.986 4202.018 4170.225 4140 4140 4140 4140 4228.492 4230.35 4319.131 4325.14 4410.431 4417.12 4114.161 4402.822 4425.068 4365.751 4248.781 3870 4221.814 4226.908 4229.785 4183.266 4184.645 4139.38 4050.479 4075.021 4049.945 4049.923 4049.866 4024.891 3959.445 3870.688 3823.817 3806.016 3810.664 3829.686 3848.468 3861.898 3862.783 3869.994 3889.792 3961.423 4111.315 4228.647 4289.751 4335.309 4409.9 4428.271 4411.157 4411.174 4499.804 4410 4499.282 4499.89 4474.326 4443.449 4423.615 4410.001 4411.03 4410.004 4425.698 4400.742 4171.787 3964.671 3960 3960 3960 3960 3960 4327.97 4432.548 4393.011 4367.36 4416.029 4499.645 4544.452 4409.559 4379.261 4247.398 4229.402 4140.909 4050.541 4022.809 3959.924 3926.175 3887.887 3870 4011.711 4139.928 4163.514 4138.856 3960 4002.655 4141.402 4318.284 4231.203 4140.997 4140.641 4165.02 4286.43 4280.851 4400.118 4324.433 4353.952 4140.078 4404.666 4410.025 4375.704 4320.065 4302.249 4319.992 -9999 -9999 -9999 -9999 -9999 -9999 -9999 -9999 -9999 -9999 -9999 -9999 -9999 -9999 -9999 -9999 -9999 -9999 -9999 -9999 -9999 -9999 -9999 -9999 -9999 -9999 -9999 -9999 -9999 -9999 -9999 -9999 -9999 -9999 -9999 -9999 -9999 -9999 -9999 -9999 -9999 -9999 -9999 -9999 -9999 -9999 -9999 -9999 -9999 -9999 -9999 -9999 -9999 -9999 -9999 -9999 -9999 -9999 -9999 -9999 -9999 -9999 -9999 -9999 -9999 -9999 -9999 -9999 -9999 -9999 -9999 -9999 -9999 -9999 -9999 -9999 -9999 -9999 -9999 -9999 -9999 -9999 -9999 -9999 -9999 -9999 -9999 -9999
-9999 -9999 -9999 -9999 -9999 -9999 -9999 -9999 -9999 -9999 -9999 -9999 -9999 4590 4588.903 4458.669 4425.552 4320.208 4284.504 4249.867 4229.999 4209.473 4182.744 4140 4140 4181.609 4229.667 4229.009 4140 4140 4228.55 4230.108 4273.66 4229.755 4120.941 4341.583 4363.779 4329.585 4220.531 3870 4127.323 4140.543 4142.593 4095.588 4139.277 4050.81 4030.145 4049.342 3960.702 3959.995 3960.227 3959.209 3870.649 3826.357 3803.003 3793.238 3799.816 3827.434 3843.059 3855.754 3866.283 3863.615 3916.086 4048.72 4184.107 4270.583 4307.521 4320.101 4378.118 4409.769 4410.251 4499.657 4369.484 4498.648 4410.622 4499.912 4499.99 4440.697 4430.501 4422.828 4425.011 4419.029 4410.017 4425.113 4372.916 3960 4140.784 4368.73 4380.957 4243.49 4281.465 3960 3960 3960 3960 4200.593 4307.057 4409.636 4277.862 4226.487 4140.242 4177.863 4229.755 4140.109 4050.392 3960.454 3904.071 3912.458 3870 4048.658 4139.304 4127.577 4135.112 3960 4028.922 4092.258 4141.284 4141.085 4140.878 4187.359 4274.07 4362.945 4453.729 4499.984 4469.479 4392.077 4140.051 4407.589 4381.629 4320.054 4278.456 4271.081 4294.885 4319.986 4318.762 4320.002 -9999 -9999 -9999 -9999 -9999 -9999 -9999 -9999 -9999 -9999 -9999 -9999 -9999 -9999 -9999 -9999 -9999 -9999 -9999 -9999 -9999 -9999 -9999 -9999 -9999 -9999 -9999 -9999 -9999 -9999 -9999 -9999 -9999 -9999 -9999 -9999 -9999 -9999 -9999 -9999 -9999 -9999 -9999 -9999 -9999 -9999 -9999 -9999 -9999 -9999 -9999 -9999 -9999 -9999 -9999 -9999 -9999 -9999 -9999 -9999 -9999 -9999 -9999 -9999 -9999 -9999 -9999 -9999 -9999 -9999 -9999 -9999 -9999 -9999 -9999 -9999 -9999 -9999 -9999 -9999 -9999 -9999 -9999 -9999 -9999
-9999 -9999 -9999 -9999 -9999 -9999 -9999 -9999 -9999 -9999 -9999 -9999 -9999 4589.122 4545.309 4587.917 4415.661 4320.165 4272.85 4230.041 4214.453 4188.28 4161.931 4140 4161.85 4229.874 4262.595 4262.43 4222.316 4228.974 4140 4140 4140 4140 4128.691 4316.95 4189.521 4229.536 4178.232 3870 3945.638 4049.739 4079.666 4044.337 4049.716 4004.516 3994.51 3960.125 3914.88 3901.748 3890.29 3870.151 3847.757 3832.227 3820.808 3812.631 3817.414 3870.302 3870.045 3870.083 3870.109 3864.13 3975.965 4050.021 4140.531 4229.04 4276.225 4295.594 4319.989 4320.373 4365.036 4456.213 4496.443 4324.703 4409.416 4509.574 4499.538 4388 4409.828 4409.889 4432.561 4430.674 4392.802 4350.341 4456.654 4538.577 4535.811 4502.462 4499.98 4455.662 4498.519 4344.12 4388.402 4336.955 4205.005 3960 3960 4238.735 4111.907 4054.627 4222.931 4140.171 4206.724 4199.939 4133.4 4049.567 3959.385 3870 3959.001 4049.624 4007.052 3960 3960 4045.187 4108.331 4105.098 4100.192 4119.377 4140.583 4229.647 4283.429 4320.349 4405.63 4455.104 4500.03 4486.773 4140.039 4407.287 4320.727 4255.666 4229.984 4230.012 4258.097 4288.194 4305.89 4320.009 -9999 -9999 -9999 -9999 -9999 -9999 -9999 -9999 -9999 -9999 -9999 -9999 -9999 -9999 -9999 -9999 -9999 -9999 -9999 -9999 -9999 -9999 -9999 -9999 -9999 -9999 -9999 -9999 -9999 -9999 -9999 -9999 -9999 -9999 -9999 -9999 -9999 -9999 -9999 -9999 -9999 -9999 -9999 -9999 -9999 -9999 -9999 -9999 -9999 -9999 -9999 -9999 -9999 -9999 -9999 -9999 -9999 -9999 -9999 -9999 -9999 -9999 -9999 -9999 -9999 -9999 -9999 -9999 -9999 -9999 -9999 -9999 -9999 -9999 -9999 -9999 -9999 -9999 -9999 -9999 -9999 -9999 -9999 -9999 -9999
-9999 -9999 -9999 -9999 -9999 -9999 -9999 -9999 -9999 -9999 -9999 -9999 4559.611 4433.102 4514.323 4500.063 4542.797 4412.566 4320.295 4272.856 4229.936 4177.911 4150.414 4140 4229.405 4281.028 4292.387 4284.818 4266.076 4265.036 4229.251 4151.583 4140 4140.07 4139.957 4169.994 4134.231 4140.401 4139.957 3870 4045.981 4014.073 3986.681 3951.602 3940.628 3935.363 3959.386 3893.559 3885.081 3876.569 3868.343 3863.861 3869.994 3869.99 3869.988 3869.973 3872.41 4002.828 3960.72 3959.953 3959.369 3870.191 3864.725 3959.99 4049.445 4082.04 4183.959 4229.615 4267.589 4280.073 4322.01 4495.522 4288.993 4319.254 4410.092 4498.292 4441.487 4320.367 4332.516 4320.67 4409.426 4444.001 4409.748 4350.55 4498.949 4582.317 4590.007 4589.722 4501.24 4469.569 4369.012 4454.227 4455.061 4438.232 4303.287 4177.65 4209.11 3960 3960 3960 3960 4215.95 4184.504 4187.577 4139.864 4049.908 3958.653 3870 3959.801 3960 3960 4002.303 4035.013 4139.341 4140.872 4185.09 4198.899 4140.532 4228.972 4269.5 4298.397 4319.987 4367.691 4410.854 4499.745 4503.578 4405.689 4416.458 4320.035 4230.5 4202.105 4206.698 4229.998 4257.425 4286.371 4306.32 -9999 -9999 -9999 -9999 -9999 -9999 -9999 -9999 -9999 -9999 -9999 -9999 -9999 -9999 -9999 -9999 -9999 -9999 -9999 -9999 -9999 -9999 -9999 -9999 -9999 -9999 -9999 -9999 -9999 -9999 -9999 -9999 -9999 -9999 -9999 -9999 -9999 -9999 -9999 -9999 -9999 -9999 -9999 -9999 -9999 -9999 -9999 -9999 -9999 -9999 -9999 -9999 -9999 -9999 -9999 -9999 -9999 -9999 -9999 -9999 -9999 -9999 -9999 -9999 -9999 -9999 -9999 -9999 -9999 -9999 -9999 -9999 -9999 -9999 -9999 -9999 -9999 -9999 -9999 -9999 -9999 -9999 -9999 -9999 -9999
-9999 -9999 -9999 -9999 -9999 -9999 -9999 -9999 -9999 4590.012 4574.176 4444.811 4140 4140 4568.109 4589.979 4586.408 4543.586 4412.319 4320.04 4229.998 4158.006 4140 4229.206 4283.933 4319.974 4304.637 4286.168 4264.72 4256.499 4245.234 4229.611 4162.063 4229.44 4229.31 4139.957 4139.957 4139.957 3878.06 4139.957 3870 3875.934 3881.274 3870 3870 3870 3870 3870 3870 3870 3866.193 3869.612 3879.633 3893.9 3918.482 3959.853 4004.544 4063.213 4049.896 4014.274 3980.081 3914.679 3865.083 3904.455 3959.682 3960.808 4049.48 4096.426 4183.896 4198.748 4172.506 4270.486 4141.691 4229.328 4318.675 4328.976 4496.14 4321.554 4319.535 4303.622 4321.746 4409.332 4365.326 4409.919 4474.374 4501.032 4589.028 4589.205 4412.409 4408.034 4231.383 4275.216 4275.214 4232.431 4230.089 4229.932 4269.397 4234.33 4308.074 4185.314 4089.581 3960 3960 4077.742 4049.202 3959.206 3870 3959.097 3968.66 3960 4049.059 4080.276 4142.74 4287.271 4276.296 4319.976 4281.35 4229.985 4261.238 4289.138 4320.011 4330.975 4410.032 4499.702 4446.099 4455.039 4410.024 4362.862 4345.982 4319.268 4230.334 4212.009 4216.515 4230.015 4256.776 -9999 -9999 -9999 -9999 -9999 -9999 -9999 -9999 -9999 -9999 -9999 -9999 -9999 -9999 -9999 -9999 -9999 -9999 -9999 -9999 -9999 -9999 -9999 -9999 -9999 -9999 -9999 -9999 -9999 -9999 -9999 -9999 -9999 -9999 -9999 -9999 -9999 -9999 -9999 -9999 -9999 -9999 -9999 -9999 -9999 -9999 -9999 -9999 -9999 -9999 -9999 -9999 -9999 -9999 -9999 -9999 -9999 -9999 -9999 -9999 -9999 -9999 -9999 -9999 -9999 -9999 -9999 -9999 -9999 -9999 -9999 -9999 -9999 -9999 -9999 -9999 -9999 -9999 -9999 -9999 -9999 -9999 -9999 -9999 -9999 -9999
-9999 -9999 -9999 -9999 -9999 -9999 -9999 -9999 -9999 4590.007 4564.814 4140 4468.092 4455.741 4582.247 4549.059 4500.525 4499.59 4499.014 4364.446 4230.091 4140 4229.242 4319.527 4320.111 4320.18 4295.12 4276.318 4243.717 4224.813 4207.708 4189.746 4230.275 4320.194 4320.344 4227.389 4138.645 4050 4139.957 3885.352 3887.292 3870 3870 3894.619 3921.837 3959.637 3917.213 3901.945 3885.67 3870 3870 3874.098 3878.626 3893.029 3921.104 3960.038 4010.524 4049.836 4050.012 4019.444 3959.993 3870.239 3865.373 3870.014 3896.749 3909.972 3960.053 4005.819 4050.189 4050.55 4050.219 4096.186 4120.676 4140.346 4184.191 4142.792 4261.736 4230.615 4184.936 4176.976 4164.442 4291.242 4316.859 4408.694 4410.837 4367.894 4541.18 4590.038 4498.599 4411.778 4351.212 4276.871 4230.029 4215.711 4199.887 4140.229 4229.814 4319.534 4266.717 4274.83 4214.378 4091.35 3972.783 3960 3917.25 3870 3912.585 3960 3960 3960 4050.51 4140.929 4273.049 4371.836 4410.199 4475.911 4366.291 4300.858 4301.305 4320.473 4364.83 4320.071 4410.061 4498.553 4365.374 4497.867 4410.44 4408.666 4302 4326.204 4275.69 4229.988 4216.746 4220.533 4229.999 -9999 -9999 -9999 -9999 -9999 -9999 -9999 -9999 -9999 -9999 -9999 -9999 -9999 -9999 -9999 -9999 -9999 -9999 -9999 -9999 -9999 -9999 -9999 -9999 -9999 -9999 -9999 -9999 -9999 -9999 -9999 -9999 -9999 -9999 -9999 -9999 -9999 -9999 -9999 -9999 -9999 -9999 -9999 -9999 -9999 -9999 -9999 -9999 -9999 -9999 -9999 -9999 -9999 -9999 -9999 -9999 -9999 -9999 -9999 -9999 -9999 -9999 -9999 -9999 -9999 -9999 -9999 -9999 -9999 -9999 -9999 -9999 -9999 -9999 -9999 -9999 -9999 -9999 -9999 -9999 -9999 -9999 -9999 -9999 -9999 -9999
-9999 -9999 -9999 -9999 -9999 -9999 -9999 -9999 -9999 4555.723 4545.265 4528.419 4140 4485.329 4541.96 4456.32 4366.958 4321.643 4374.984 4323.985 4229.726 4140 4274.051 4353.465 4382.973 4409.437 4320.643 4287.414 4250.678 4230.245 4250.797 4230.191 4319.489 4403.523 4299.554 4050 4050 4139.184 4050.459 4139.957 3972.85 3916.868 3915.243 3931.781 3955.713 3976.749 3960.01 3959.93 3930.848 3899.848 3891.007 3870 3870 3870 3898.064 3929.077 3959.933 3960.566 4019.699 4006.746 3959.996 3870.064 3865.653 3870 3876.247 3887.75 3920.82 3959.997 3993.393 4001.682 4013.607 4039.423 4050.181 4086.145 4100.705 4099.011 4140.016 4125.47 3910.455 3716.034 3713.835 4057.653 4013.097 4184.642 4244.159 4072.158 4306.153 4580.965 4590.109 4538.284 4410.23 4452.835 4323.369 4318.551 4230.653 4166.627 4140.121 4185.819 4229.302 4253.114 4274.664 4141.741 4050.034 3984.348 3960 3870 3959.652 3964.996 3960 4048.764 4139.537 4230.248 4320.187 4409.094 4455.215 4500.032 4450.38 4364.983 4365.335 4409.913 4409.963 4350.278 4372.097 4369.643 4496.806 4328.985 4408.589 4277.426 4284.733 4319.92 4230.583 4199.93 4205.25 4213.081 4214.359 4220.512 -9999 -9999 -9999 -9999 -9999 -9999 -9999 -9999 -9999 -9999 -9999 -9999 -9999 -9999 -9999 -9999 -9999 -9999 -9999 -9999 -9999 -9999 -9999 -9999 -9999 -9999 -9999 -9999 -9999 -9999 -9999 -9999 -9999 -9999 -9999 -9999 -9999 -9999 -9999 -9999 -9999 -9999 -9999 -9999 -9999 -9999 -9999 -9999 -9999 -9999 -9999 -9999 -9999 -9999 -9999 -9999 -9999 -9999 -9999 -9999 -9999 -9999 -9999 -9999 -9999 -9999 -9999 -9999 -9999 -9999 -9999 -9999 -9999 -9999 -9999 -9999 -9999 -9999 -9999 -9999 -9999 -9999 -9999 -9999 -9999
-9999 -9999 -9999 -9999 -9999 -9999 -9999 -9999 -9999 4547.347 4499.966 4413.781 4140 4388.46 4448.468 4469.208 4321.036 4310.73 4319.993 4289.539 4227.395 4140 4274.359 4364.807 4411.575 4410.722 4409.779 4409.05 4368.549 4318.274 4230.201 4264.394 4321.016 4369.816 4050 4133.032 4224.799 4140.964 4076.22 4050.293 3991.922 3953.232 3951.96 3965.248 3978.161 3984.014 3975.141 3967.939 3959.979 3932.838 3960 3910.014 3893.443 3883.919 3870 3891.389 3915.025 3941.107 3941.788 3959.906 3959.459 3870.157 3865.925 3867.198 3870 3876.557 3899.209 3931.43 3959.917 3959.865 3960.03 4010.925 4002.315 4049.176 4050.084 4060.021 3983.076 3844.33 3718.927 4078.651 4098.189 3710.447 3707.912 3705.688 3703.29 3700.687 3697.844 4241.534 4433.621 4446.873 4204.523 4440.121 4454.613 4411.115 4335.271 4272.748 4140.796 4110.228 4121.71 4227.271 4274.094 4207.258 4141.442 4006.377 3952.267 3870 3926.334 3960 3982.175 4050.55 4186.246 4318.895 4366.557 4454.995 4509.583 4537.616 4498.24 4365.074 4409.344 4321.601 4384.326 4409.622 4363.729 4276.489 4237.283 4229.94 4289.643 4252.876 4275.01 4306.97 4274.186 4191.451 4197.774 4205.048 4230.059 4230.14 4229.994 4274.92 4298.588 -9999 -9999 -9999 -9999 -9999 -9999 -9999 -9999 -9999 -9999 -9999 -9999 -9999 -9999 -9999 -9999 -9999 -9999 -9999 -9999 -9999 -9999 -9999 -9999 -9999 -9999 -9999 -9999 -9999 -9999 -9999 -9999 -9999 -9999 -9999 -9999 -9999 -9999 -9999 -9999 -9999 -9999 -9999 -9999 -9999 -9999 -9999 -9999 -9999 -9999 -9999 -9999 -9999 -9999 -9999 -9999 -9999 -9999 -9999 -9999 -9999 -9999 -9999 -9999 -9999 -9999 -9999 -9999 -9999 -9999 -9999 -9999 -9999 -9999 -9999 -9999 -9999 -9999 -9999 -9999 -9999 -9999
-9999 -9999 -9999 -9999 -9999 -9999 -9999 -9999 -9999 4589.621 4500.854 4455.82 4384.61 4140 4140 4364.374 4296.465 4318.49 4279.751 4255.271 4217.305 4140 4274.66 4412.477 4588.134 4530 4500.405 4484.813 4518.73 4230.199 4317.109 4320.189 4397.049 4050 4284.722 4360.379 4321.708 4231.38 4184.093 4106.357 4050.035 3997.811 3994.957 4003.369 4001.739 3993.702 3984.84 3975.057 3960 3960 3960.003 3937.374 3927.211 3914.653 3899.304 3870 3870 3870 3870 3870.092 3870.15 3867.875 3866.194 3868.195 3868.569 3870 3879.642 3894.178 3892.037 3866.583 3852.613 3954.064 3877.918 3918.288 4047.99 4068.873 3886.508 3721.649 4070.823 4232.211 4296.674 4246.975 4086.899 4376.386 4337.22 4277.587 4263.058 3693.464 3690 3690 3690 4397.263 4440.754 4499.708 4411.997 4320.751 4230.051 4139.66 4077.188 4050.856 4093.365 4118.979 4182.253 4043.194 3870 3914.27 3959.941 3977.303 4022.222 4098.345 4273.615 4371.557 4410.981 4499.881 4524.94 4499.118 4367.969 4297.674 4274.887 4230.752 4289.198 4251.342 4181.975 4173.536 4140.121 4169.829 4199.199 4230.037 4275.046 4259.208 4182.257 4185.782 4195.779 4230.55 4319.555 4319.241 4230.454 4252.631 4319.882 4331.418 -9999 -9999 -9999 -9999 -9999 -9999 -9999 -9999 -9999 -9999 -9999 -9999 -9999 -9999 -9999 -9999 -9999 -9999 -9999 -9999 -9999 -9999 -9999 -9999 -9999 -9999 -9999 -9999 -9999 -9999 -9999 -9999 -9999 -9999 -9999 -9999 -9999 -9999 -9999 -9999 -9999 -9999 -9999 -9999 -9999 -9999 -9999 -9999 -9999 -9999 -9999 -9999 -9999 -9999 -9999 -9999 -9999 -9999 -9999 -9999 -9999 -9999 -9999 -9999 -9999 -9999 -9999 -9999 -9999 -9999 -9999 -9999 -9999 -9999 -9999 -9999 -9999 -9999 -9999 -9999 -9999
-9999 -9999 -9999 -9999 -9999 -9999 -9999 -9999 4680.007 4631.095 4589.329 4501.161 4492.099 4402.455 4309.693 4140 4140 4140 4170.212 4203.65 4229.427 4140 4273.729 4408.834 4503.524 4557.345 4590.007 4576.57 4230.197 4519.413 4457.172 4360.021 4498.752 4559.497 4545.261 4501.581 4468.732 4379.299 4291.442 4185.691 4139.468 4050.524 4050.034 4049.967 4030.21 4012.349 4005.438 3990.4 3960 3965.996 3971.421 3960.02 3959.985 3944.651 3931.692 3914.845 3917.25 3960 3870.005 3870 3870 3868.712 3867.051 3866.496 3870.672 3872.533 3870 3869.543 3835.946 3783.215 3735.669 3734.072 3732.47 3730.861 3882.708 4020.85 3724.229 4074.025 4229.455 4286.938 4321.839 4416.69 4429.865 4412.018 4499.366 4456.258 4261.672 3690 4282.594 4423.242 4408.54 4410.402 4335.342 4353.542 4499.794 4410.114 4363.487 4234.072 4227.477 4094.183 3960.388 4047.218 3963.04 3870 3959.053 3963.201 3956.076 3959.991 4047.193 4195.496 4318.779 4410.155 4499.72 4534.47 4499.349 4410.412 4306.33 4229.45 4141.769 4138.627 4133.958 3995.38 3870 3870 3998.306 4139.959 4181.777 4239.754 4318.489 4172.405 4175.256 4190.941 4230.463 4319.879 4409.867 4366.309 4319.749 4295.585 4320.008 4330.015 -9999 -9999 -9999 -9999 -9999 -9999 -9999 -9999 -9999 -9999 -9999 -9999 -9999 -9999 -9999 -9999 -9999 -9999 -9999 -9999 -9999 -9999 -9999 -9999 -9999 -9999 -9999 -9999 -9999 -9999 -9999 -9999 -9999 -9999 -9999 -9999 -9999 -9999 -9999 -9999 -9999 -9999 -9999 -9999 -9999 -9999 -9999 -9999 -9999 -9999 -9999 -9999 -9999 -9999 -9999 -9999 -9999 -9999 -9999 -9999 -9999 -9999 -9999 -9999 -9999 -9999 -9999 -9999 -9999 -9999 -9999 -9999 -9999 -9999 -9999 -9999 -9999 -9999 -9999 -9999 -9999
-9999 -9999 -9999 -9999 -9999 -9999 -9999 -9999 4634.382 4590.214 4589.963 4589.968 4559.982 4500.027 4410.847 4318.662 4315.5 4186.937 4140 4140 4140 4182.877 4230.27 4321.322 4391.991 4050 4502.518 4589.297 4422.734 4495.215 4589.106 4498.262 4410 4500.026 4589.802 4589.776 4501.517 4431.923 4364.187 4266.111 4229.44 4140 4121.009 4083.739 4050.018 4032.938 4014.067 3960 4018.953 4007.37 4009 3996.139 3972.911 3960 3959.998 3960 3960 3960 3897.312 3870.005 3870 3870 3867.959 3866.67 3875.135 3884.196 3883.503 3870.019 3800.561 3737.879 3773.762 3811.042 3960 3838.316 3728.381 3726.689 4008.458 4140.445 4203.306 4260.204 4402.527 4470.63 4530.872 4499.991 4500.062 4537.363 4398.794 3690 4340.257 4538.438 4455.455 4454.652 4320.812 4285.957 4427.35 4365.664 4418.459 4357.852 4167.466 4139.361 4047.656 3928.072 3902.317 3870 3953.137 3960.007 3912.753 3870 3870 3986.781 4141.511 4317.737 4463.415 4517.217 4455.661 4319.984 4230.433 4139.261 4040.739 3965.793 3915.502 3870 4004.885 4134.261 3870 4130.315 4147.844 4155.061 4162.018 4167.042 4197.055 4230.228 4319.309 4410.712 4499.546 4366.345 4320.496 4296.868 4319.811 4320 -9999 -9999 -9999 -9999 -9999 -9999 -9999 -9999 -9999 -9999 -9999 -9999 -9999 -9999 -9999 -9999 -9999 -9999 -9999 -9999 -9999 -9999 -9999 -9999 -9999 -9999 -9999 -9999 -9999 -9999 -9999 -9999 -9999 -9999 -9999 -9999 -9999 -9999 -9999 -9999 -9999 -9999 -9999 -9999 -9999 -9999 -9999 -9999 -9999 -9999 -9999 -9999 -9999 -9999 -9999 -9999 -9999 -9999 -9999 -9999 -9999 -9999 -9999 -9999 -9999 -9999 -9999 -9999 -9999 -9999 -9999 -9999 -9999 -9999 -9999 -9999 -9999 -9999 -9999 -9999 -9999
-9999 -9999 -9999 -9999 -9999 -9999 -9999 -9999 4500.775 4520.343 4500.202 4500.357 4532.918 4534.958 4499.588 4411.181 4385.827 4318.858 4229.403 4162.816 4170.783 4194.302 4230.117 4319.988 4252.718 4050 4373.267 4458.257 4529.636 4589.798 4590.098 4560.878 4498.599 4410.037 4499.301 4589.77 4589.327 4456.576 4321.505 4249.034 4225.519 4199.528 4110.257 4086.553 4067.462 4049.756 3960 4049.221 4094.834 4050.524 4049.977 4031.037 3972.105 3960 3960 3960 3960 3947.687 3912.045 3883.206 3870.001 3870 3870 3868.277 3866.822 3884.624 3877.409 3867.579 3740.026 3817.81 3882.279 3958.683 3960 3960 3960 4040.826 3960 4091.608 4223.251 4087.749 4117.594 4370.353 4444.935 4396.066 4391.855 4454.822 4348.21 3690 4147.714 4403.213 4283.431 4452.898 4411.094 4337.503 4232.235 4231.635 4361.359 4202.731 4315.416 4099.458 4027.298 3959.795 3912.728 3870 3959.418 3959.384 3870 3966.875 4140.396 3870 3956.455 4116.969 4319.305 4454.625 4428.523 4193.203 4128.114 3992.604 3870 3870 3870 4164.01 4180.877 3940.884 3870 4015.777 4201.781 4154.979 4175.339 4198.039 4230.088 4282.327 4365.586 4468.166 4499.954 4409.729 4319.979 4249.961 4230.226 4267.097 -9999 -9999 4378.692 -9999 -9999 -9999 -9999 -9999 -9999 -9999 -9999 -9999 -9999 -9999 -9999 -9999 -9999 -9999 -9999 -9999 -9999 -9999 -9999 -9999 -9999 -9999 -9999 -9999 -9999 -9999 -9999 -9999 -9999 -9999 -9999 -9999 -9999 -9999 -9999 -9999 -9999 -9999 -9999 -9999 -9999 -9999 -9999 -9999 -9999 -9999 -9999 -9999 -9999 -9999 -9999 -9999 -9999 -9999 -9999 -9999 -9999 -9999 -9999 -9999 -9999 -9999 -9999 -9999 -9999 -9999 -9999 -9999 -9999 -9999 -9999 -9999 -9999 -9999 -9999 -9999 -9999
-9999 -9999 -9999 -9999 -9999 -9999 -9999 -9999 -9999 4499.595 4464.372 4457.477 4499.972 4531.947 4530.508 4499.556 4410.306 4320.186 4230.171 4204.473 4183.459 4204.807 4230.35 4320 4234.432 4089.24 4050 4212.872 4403.12 4456.387 4501.223 4544.499 4530.017 4521.331 4410.529 4500.106 4589.793 4544.764 4409.379 4270.586 4230.008 4198.923 4140.034 4108.722 4075.122 4049.756 3960 4137.832 4182.937 4139.791 4052.258 4049.229 3960 3960 3960 3960 3960.001 3944.008 3928.401 3901.978 3880.074 3870 3872.606 3870 3867.634 3866.915 3801.313 3742.115 3867.134 3906.333 3933.745 3960.049 3994.069 4050 4050 3960 3960 3960 3960 3960 3960 3960 3960 3960 3960 4244.993 4268.064 3892.897 3690 4130.426 4177.751 4327.62 4499.753 4369.92 4231.471 4230 4234.641 4425.19 4323.388 4111.054 4025.675 3959.954 3917.355 3870 3914.805 3870 3870 4129.171 4229.943 4082.806 3870 3915.389 4109.273 4290.048 4255.987 4041.518 3870 3870 3995.929 4131.604 4218.694 4326.841 4434.509 4202.916 3870 4236.242 4261.587 4199.877 4185.531 4229.931 4272.7 4319.97 4409.402 4499.978 4455.215 4400.225 4320.114 4230.426 4204.414 4230.352 4319.627 4359.734 4410.042 4410.036 4430.465 -9999 -9999 -9999 -9999 -9999 -9999 -9999 -9999 -9999 -9999 -9999 -9999 -9999 -9999 -9999 -9999 -9999 -9999 -9999 -9999 -9999 -9999 -9999 -9999 -9999 -9999 -9999 -9999 -9999 -9999 -9999 -9999 -9999 -9999 -9999 -9999 -9999 -9999 -9999 -9999 -9999 -9999 -9999 -9999 -9999 -9999 -9999 -9999 -9999 -9999 -9999 -9999 -9999 -9999 -9999 -9999 -9999 -9999 -9999 -9999 -9999 -9999 -9999 -9999 -9999 -9999 -9999 -9999 -9999 -9999 -9999 -9999 -9999 -9999 -9999 -9999
-9999 -9999 -9999 -9999 -9999 -9999 -9999 -9999 -9999 -9999 4410.131 4410.083 4452.742 4499.958 4500.031 4480.552 4409.836 4319.842 4230.089 4203.119 4181.908 4229.927 4271.307 4319.996 4248.598 4132.61 4050 4050 4171.542 4264.331 4388.821 4413.273 4469.929 4470.124 4409.875 4411.017 4500.505 4589.999 4499.539 4381.125 4290.542 4230.021 4185.223 4139.829 4091.58 4002.634 3960 4139.474 4198.736 4133.81 3960 3960 4048.787 4038.529 4038.529 4038.529 3998.204 3960.065 3959.96 3928.847 3898.318 3881.15 3870.001 3875.487 3868.325 3803.052 3744.147 3792.504 3870.097 3935.239 3959.998 3973.629 4000.406 4050 4050 4138.209 4180.076 3971.695 3960 4289.703 4467.732 4417.555 4213.328 4406.423 4289.271 4348.721 4231.674 4117.151 3986.4 3690 3929.669 4194.666 4381.107 4499.972 4362.279 4230.198 4230 4450.293 4380.229 4142.3 4049.408 3960.2 3959.835 3893.507 3870 3870 3957.944 4052.187 4185.375 4228.597 4082.903 3870 3870 4071.001 3870 3870 3994.918 4131.348 4254.145 4345.036 4452.593 4470.543 4465.304 4237.103 3870 4379.713 4276.749 4219.28 4198.082 4213.475 4230.052 4266.658 4322.191 4467.731 4410.279 4408.9 4383.388 4319.408 4230.704 4199.873 4215.126 4321.52 4410.059 4411.927 4381.303 4422.141 -9999 4320.017 4319.864 -9999 -9999 -9999 -9999 -9999 -9999 -9999 -9999 -9999 -9999 -9999 -9999 -9999 -9999 -9999 -9999 -9999 -9999 -9999 -9999 -9999 -9999 -9999 -9999 -9999 -9999 -9999 -9999 -9999 -9999 -9999 -9999 -9999 -9999 -9999 -9999 -9999 -9999 -9999 -9999 -9999 -9999 -9999 -9999 -9999 -9999 -9999 -9999 -9999 -9999 -9999 -9999 -9999 -9999 -9999 -9999 -9999 -9999 -9999 -9999 -9999 -9999 -9999 -9999 -9999 -9999 -9999 -9999 -9999 -9999 -9999 -9999
-9999 -9999 -9999 -9999 -9999 -9999 -9999 -9999 -9999 -9999 -9999 4410.011 4410.011 4456.697 4464.543 4439.64 4365.014 4294.938 4230.045 4203.193 4178.644 4229.996 4286.212 4320 4279.95 4206.713 4137.712 4050 4050 4050.001 4050.001 4294.523 4357.112 4348.744 4315.49 4314.497 4348.771 4554.782 4500.352 4498.848 4366.792 4275.776 4229.597 4116.379 4114.018 3960 4045.251 4146.517 4133.487 3960 4044.064 4136.975 4111.401 4050 4038.521 4038.512 4025.279 4006.684 3998.908 3959.999 3923.475 3908.901 3884.126 3870.01 3869.049 3746.867 3745.566 3817.384 3870.408 3959.702 3988.805 4013.192 4053.96 4139.311 4094.805 4050 4138.405 4007.25 4287.345 4438.812 4410.478 4499.408 4442.53 4509.108 4454.681 4433.048 4276.052 4319.356 4314 4098.106 3690 4049.458 4271.345 4378.962 4234.414 4139.696 4140.058 4238.995 4409.364 4166.8 4056.556 3988.22 3964.294 3914.776 3870 3986.549 4005.794 4066.225 4170.459 4261.734 4229.034 4086.229 3913.024 3870 4039.947 4132.985 4140.295 4186.627 4280.129 4453.623 4521.121 4498.698 4317.641 3870 4270.889 4440.724 4342.345 4246.048 4209.46 4207.726 4212.484 4229.994 4259.568 4321.167 4365.423 4422.848 4432.992 4345.901 4249.615 3970.492 3743.376 4022.763 4141.054 4086.393 3870 4241.333 4262.052 4289.1 4342.749 -9999 -9999 -9999 -9999 -9999 -9999 -9999 -9999 -9999 -9999 -9999 -9999 -9999 -9999 -9999 -9999 -9999 -9999 -9999 -9999 -9999 -9999 -9999 -9999 -9999 -9999 -9999 -9999 -9999 -9999 -9999 -9999 -9999 -9999 -9999 -9999 -9999 -9999 -9999 -9999 -9999 -9999 -9999 -9999 -9999 -9999 -9999 -9999 -9999 -9999 -9999 -9999 -9999 -9999 -9999 -9999 -9999 -9999 -9999 -9999 -9999 -9999 -9999 -9999 -9999 -9999 -9999 -9999 -9999 -9999 -9999 -9999
-9999 -9999 -9999 -9999 -9999 -9999 -9999 -9999 -9999 -9999 -9999 4410 4399.044 4417.556 4435.282 4409.847 4320.308 4280.225 4247.821 4229.882 4173.467 4229.951 4295.295 4320.011 4315.701 4280.367 4234.657 4188.337 4201.237 4231.551 4298.486 4050.001 4050.002 4050.002 4050.003 4050.003 4050.004 4326.276 4410.961 4500.04 4454.219 4320.644 4319.467 4229.927 4138.814 3960 4138.138 4138.983 3960 4017.261 4140.444 4229.604 4140.608 4050.064 4038.508 4038.505 4049.994 4050.011 4049.894 3998.949 3960.282 3959.842 3918.707 3899.979 3869.819 3748.73 3747.302 3869.188 3915.978 3960.31 4028.408 4111.417 4270.232 4318.572 4231.919 4181.228 4050 4213.865 4409.351 4480.491 4500.014 4589.865 4528.62 4499.776 4440.365 4497.77 4320.22 4274.616 4144.567 3965.694 3923.211 3690 4019.604 4163.825 4105.963 4050.201 4140.361 4298.683 4467.598 4202.11 4070.338 4007.555 3959.93 3870 3870 4004.656 4115.367 4140.946 4230.643 4302.014 4304.019 4229.521 4097.433 4091.095 4095.348 4229.537 4230.179 4231.695 4405.065 4522.036 4500.807 4370.243 4082.766 3870 4378.482 4410.103 4320.067 4230.138 4212.169 4213.242 4209.571 4213.055 4230.004 4269.836 4319.942 4408.064 4424.619 4235.073 3802.473 3240 3240 3240 3240 3240 4107.706 3870 3870 4058.697 4267.249 4320.159 4348.572 -9999 -9999 -9999 -9999 -9999 -9999 -9999 -9999 -9999 -9999 -9999 -9999 -9999 -9999 -9999 -9999 -9999 -9999 -9999 -9999 -9999 -9999 -9999 -9999 -9999 -9999 -9999 -9999 -9999 -9999 -9999 -9999 -9999 -9999 -9999 -9999 -9999 -9999 -9999 -9999 -9999 -9999 -9999 -9999 -9999 -9999 -9999 -9999 -9999 -9999 -9999 -9999 -9999 -9999 -9999 -9999 -9999 -9999 -9999 -9999 -9999 -9999 -9999 -9999 -9999 -9999 -9999 -9999 -9999 -9999
-9999 -9999 -9999 -9999 -9999 -9999 -9999 -9999 -9999 -9999 -9999 -9999 4396.581 4382.143 4409.917 4384.735 4320.03 4282.787 4249.012 4204.267 4166.14 4229.209 4319.903 4351.753 4364.72 4354.766 4335.842 4323.494 4342.711 4368.393 4395.811 4315.466 4317.409 4417.3 4393.67 4254.943 4331.624 4050.005 4245.013 4430.269 4455.148 4347.697 4335.512 4296.844 4178.345 3960 4226.185 4154.992 3960 4132.21 4229.427 4287.023 4184.059 4050.067 4038.503 4050 4069.917 4081.819 4081.23 4050.372 4049.776 4016.103 3960.332 3959.926 3960.005 3910.585 3751.257 3869.818 3959.668 4028.177 4095.124 4181.173 4289.885 4350.024 4364.872 4359.067 4142.89 4050 4299.307 4359.373 4456.812 4589.121 4501.662 4410.453 4352.152 4320.905 4230.244 4244.371 4230.205 4225.821 4180.97 3994.41 3690 3690 3846.343 4089.913 4179.667 4263.939 4278.879 4097.476 4043.458 4024.119 3989.45 3871.318 3870 4009.219 4254.184 4276.805 4363.847 4367.027 4365.096 4334.862 4228.283 4095.999 4051.224 4262.288 4320.038 4309.631 4415.707 4589.274 4588.713 4400.631 3870 4273.782 4448.298 4409.962 4290.131 4229.178 4225.36 4229.997 4216.843 4208.239 4213.234 4229.908 4230.796 4320.388 4271.975 3796.942 3240 3809.141 4072.255 4089.766 3815.208 3790.279 4246.521 4296.042 4213.795 3870 4039.947 4227.782 4319.855 4320.031 4322.58 -9999 -9999 -9999 -9999 -9999 -9999 -9999 -9999 -9999 -9999 -9999 -9999 -9999 -9999 -9999 -9999 -9999 -9999 -9999 -9999 -9999 -9999 -9999 -9999 -9999 -9999 -9999 -9999 -9999 -9999 -9999 -9999 -9999 -9999 -9999 -9999 -9999 -9999 -9999 -9999 -9999 -9999 -9999 -9999 -9999 -9999 -9999 -9999 -9999 -9999 -9999 -9999 -9999 -9999 -9999 -9999 -9999 -9999 -9999 -9999 -9999 -9999 -9999 -9999 -9999 -9999 -9999 -9999
-9999 -9999 -9999 -9999 -9999 -9999 -9999 -9999 -9999 -9999 -9999 -9999 4409.995 4385.565 4363.462 4362.724 4319.98 4273.01 4261.418 4199.099 4156.379 4216.388 4319.442 4360.424 4400.574 4409.998 4410.017 4410.052 4423.068 4409.993 4409.998 4404.893 4410.82 4499.863 4493.396 4440.801 4440.365 4331.713 4050.007 4050.009 4381.643 4392.651 4317.346 4263.815 4222.035 3960 4362.515 4274.573 4062.394 3960 4131.709 4289.99 4138.333 4038.5 4049.995 4071.766 4094.148 4112.894 4127.223 4139.922 4139.887 4095.087 4050.167 4017.074 4050.134 4041.509 3752.994 3865.704 3961.605 4094.591 4166.395 4230.305 4275.176 4329.861 4387.599 4428.224 4359.636 4197.077 4050 4050 4298.113 4443.71 4525.165 4412.358 4341.163 4320.96 4275.7 4297.451 4349.994 4408.572 4322.571 4198.84 3971.126 3690 3690 4038.962 4140.302 4195.61 4140.231 4050.082 4041.122 4049.996 4038.123 4002.524 3870 4003.219 4203.604 4363.787 4432.494 4412.906 4405.692 4362.208 4228.344 4138.155 4051.134 4186.296 4362.169 4366.627 4541.967 4590 4502.615 4340.821 3870 4421.68 4430.949 4363.843 4230.697 4209.722 4229.999 4222.057 4230.174 4209.038 4196.329 4182.829 4180.827 4229.533 4013.086 3240 3808.725 4211.054 4320.372 4370.916 4307.409 4306.734 4441.833 4478.387 4409.013 4213.795 3870 4114.8 4275.269 4316.535 4319.977 4266.922 4249.762 -9999 4319.847 4346.807 -9999 -9999 -9999 -9999 -9999 -9999 -9999 -9999 -9999 -9999 -9999 -9999 -9999 -9999 -9999 -9999 -9999 -9999 -9999 -9999 -9999 -9999 -9999 -9999 -9999 -9999 -9999 -9999 -9999 -9999 -9999 -9999 -9999 -9999 -9999 -9999 -9999 -9999 -9999 -9999 -9999 -9999 -9999 -9999 -9999 -9999 -9999 -9999 -9999 -9999 -9999 -9999 -9999 -9999 -9999 -9999 -9999 -9999 -9999 -9999 -9999 -9999 -9999
-9999 -9999 -9999 -9999 -9999 -9999 -9999 -9999 -9999 -9999 -9999 -9999 4410 4393.443 4366.863 4342.814 4319.986 4288.53 4275.044 4226.57 4143.847 4167.29 4237.682 4320.553 4409.856 4430.618 4445.506 4434.501 4407.712 4321.825 4320.055 4409.471 4470.225 4500.057 4500.067 4499.67 4411.109 4319.925 4185.885 4221.832 4050.011 4296.642 4263.815 4290.503 4330.147 4389.645 4499.74 4412.848 4291.769 3960 4311.503 4302.456 4038.496 4137.983 4112.859 4111.335 4118.044 4126.434 4127.723 4127.65 4139.937 4141.029 4139.514 4050.823 4125.451 4169.071 3989.151 3755.361 3997.294 4158.249 4230.37 4319.627 4320.872 4320.163 4410.005 4490.79 4499.699 4405.117 4219.316 4130.425 4050 4050 4050 4479.829 4411.664 4495.036 4325.941 4325.721 4384.638 4435.665 4409.71 4319.871 4183.993 3982.841 3690 3932.39 4052.054 4139.448 4050.77 4024.659 4049.989 4066.412 4051.826 4048.854 3870 3959.971 4180.971 4362.302 4500.307 4588.125 4364.803 4161.672 4050.894 4050.997 4180.301 4140.175 4232.128 4363.491 4483.842 4567.073 4554.567 4499.415 4385.19 4499.964 4411.195 4275.984 4195.662 4194.552 4229.979 4232.819 4319.576 4230.143 4196.23 4139.916 4092.712 4122.342 3810.545 3240 4057.082 4256.488 4230.966 4319.518 4320.278 4405.251 4470.052 4480.376 4391.273 4202.783 3870 4173.52 4319.744 4320.002 4295.802 4230.081 4230.188 4319.669 4346.271 4337.75 4320.151 -9999 -9999 -9999 -9999 -9999 -9999 -9999 -9999 -9999 -9999 -9999 -9999 -9999 -9999 -9999 -9999 -9999 -9999 -9999 -9999 -9999 -9999 -9999 -9999 -9999 -9999 -9999 -9999 -9999 -9999 -9999 -9999 -9999 -9999 -9999 -9999 -9999 -9999 -9999 -9999 -9999 -9999 -9999 -9999 -9999 -9999 -9999 -9999 -9999 -9999 -9999 -9999 -9999 -9999 -9999 -9999 -9999 -9999 -9999 -9999 -9999 -9999
-9999 -9999 -9999 -9999 -9999 -9999 -9999 -9999 -9999 -9999 -9999 -9999 4410.005 4409.994 4382.845 4357.149 4319.995 4305.099 4320.013 4319.474 4216.823 4121.949 4163.524 4319.785 4388.644 4410.036 4436.114 4357.6 4186.492 4071.389 4094.546 4300.632 4499.112 4552.725 4553.646 4543.913 4468.862 4322.626 4243.581 4233.24 4152.629 4050.014 4313.129 4320 4320.222 4409.918 4500.127 4499.337 4328.172 3960 4391.259 4038.491 4220.392 4195.796 4140.06 4139.987 4131.572 4123.577 4093.204 4050.123 4050.533 4094.563 4147.237 4139.572 4185.559 4211.835 4079.873 3756.993 3957.852 4165.22 4234.425 4296.874 4319.362 4320.081 4409.631 4499.73 4538.346 4506.176 4410.057 4361.461 4286.222 4418.093 4457.255 4501.854 4500.315 4554.863 4496.71 4365.024 4364.868 4364.406 4320.773 4286.434 4229.206 4096.572 3932.708 3690 3931.389 4049.623 4025.406 4007.581 4050.052 4090.569 4087.609 4046.86 3870 3918.175 4096.725 4237.909 4447.903 4514.885 4050.704 4050.766 4296.692 4197.218 4317.839 4230.318 4247.604 4306.82 4365.792 4467.739 4559.976 4548.534 4499.218 4411.239 4405.098 4231.148 4168.533 4178.745 4230.238 4319.587 4320.021 4230.39 4229.645 4140.683 4117.315 4019.957 3240 3800.744 4221.015 4230.106 4216.463 4230.327 4287.238 4378.404 4410.327 4418.082 4321.537 4194.226 3870 4126.995 4288.646 4297.963 4274.533 4213.729 4229.929 4284.358 4320.003 4275.298 4224.63 4050 -9999 -9999 -9999 -9999 -9999 -9999 -9999 -9999 -9999 -9999 -9999 -9999 -9999 -9999 -9999 -9999 -9999 -9999 -9999 -9999 -9999 -9999 -9999 -9999 -9999 -9999 -9999 -9999 -9999 -9999 -9999 -9999 -9999 -9999 -9999 -9999 -9999 -9999 -9999 -9999 -9999 -9999 -9999 -9999 -9999 -9999 -9999 -9999 -9999 -9999 -9999 -9999 -9999 -9999 -9999 -9999 -9999 -9999 -9999 -9999 -9999
-9999 -9999 -9999 -9999 -9999 -9999 -9999 -9999 -9999 -9999 -9999 -9999 4439.645 4446.228 4410.103 4387.4 4320.093 4320.042 4367.245 4409.608 4320.177 4203.53 4095.76 4306.885 4347.123 4410.231 4451.994 4291.63 3934.831 3797.814 3837.664 4177.418 4496.826 4584.978 4590.025 4589.975 4542.968 4468.24 4383.748 4455.556 4266.051 4050.017 4221.688 4296.36 4324.648 4366.126 4499.445 4553.898 4477.691 4003.581 4059.214 4038.488 4360.339 4234.223 4170.694 4168.669 4140.044 4116.027 4049.457 3969.031 3976.668 3961.759 4044.816 3969.85 4227.548 4159.604 3962.97 3758.601 3869.272 3995.026 4157.12 4184.678 4171.5 4229.425 4320.511 4410.833 4499.736 4536.208 4500.023 4499.946 4499.161 4399.677 3690 4163.653 4485.992 4500.033 4353 4320.202 4280.823 4237.299 4229.581 4185.13 4140.534 4136.231 4107.977 3932.86 3690 3898.147 3959.912 3960.406 4049.385 4092.255 4048.92 3916.619 3870 4084.995 4227.448 4361.476 4528.972 4545.105 4424.937 4475.833 4412.071 4321.068 4409.337 4321.324 4320.232 4314.611 4364.883 4528.33 4590 4502.084 4411.905 4433.261 4237.649 4164.261 4144.44 4167.309 4216.991 4275.251 4319.989 4293.522 4288.897 4229.647 4143.06 3975.146 3240 3909.021 4143.687 4203.424 4229.994 4224.764 4229.993 4232.585 4363.079 4379.478 4320.286 4235.314 3870 3933.578 4139.937 4273.604 4177.844 4140.125 4174.314 4230.614 4319.977 4229.998 4111.052 4050 4316.536 4319.925 -9999 -9999 -9999 -9999 -9999 -9999 -9999 -9999 -9999 -9999 -9999 -9999 -9999 -9999 -9999 -9999 -9999 -9999 -9999 -9999 -9999 -9999 -9999 -9999 -9999 -9999 -9999 -9999 -9999 -9999 -9999 -9999 -9999 -9999 -9999 -9999 -9999 -9999 -9999 -9999 -9999 -9999 -9999 -9999 -9999 -9999 -9999 -9999 -9999 -9999 -9999 -9999 -9999 -9999 -9999 -9999 -9999 -9999 -9999
-9999 -9999 -9999 -9999 -9999 -9999 -9999 -9999 -9999 -9999 -9999 -9999 -9999 4499.949 4461.901 4410.102 4363.072 4367.768 4409.979 4442.064 4409.789 4319.522 4186.995 4064.603 4185.824 4406.672 4479.227 4265.633 3800.238 3708.775 3837.664 4152.441 4497.394 4589.982 4610.086 4613.782 4590.027 4562.398 4529.718 4540.063 4493.533 4251.543 4050.021 4220.014 4325.622 4379.956 4442.509 4500.13 4453.585 3780.003 3729.525 3912.931 4290.405 4363.764 4231.773 4225.698 4169.436 4092.887 3955.242 3870 3870 3870 3870 3870 4123.774 3967.801 3870 3760.182 3816.035 3870.342 3962.204 4050.324 4105.047 4140.979 4273.925 4358.49 4410.938 4498.684 4463.567 4410.9 4454.106 4351.168 3863.638 3690 4187.98 4496.44 4499.742 4452.575 4325 4243.738 4170.216 4123.012 4087.032 4079.555 4057.053 3960.7 3860.103 3690 3861.866 3929.081 3961.232 4049.818 3960.706 3870 3915.355 4051.036 4140.86 4235.042 4438.5 4499.079 4499.968 4557.811 4499.424 4411.055 4450.355 4440.132 4438.963 4328.701 4317.489 4501.088 4587.757 4412.34 4290.267 4232.21 4194.155 4166.48 4155.219 4175.563 4221.106 4274.936 4297.354 4320.002 4334.116 4278.725 4228.604 3998.251 3240 3692.481 4032.932 4140.324 4207.658 4230 4229.72 4210.096 4229.746 4230.604 4229.188 4141.805 3924.719 3870 3991.102 4138.179 4139.906 4117.207 4139.869 4214.275 4289.595 4184.233 4050 4094.933 4229.778 4230.279 4230.006 4247.472 -9999 -9999 -9999 -9999 -9999 -9999 -9999 -9999 -9999 -9999 -9999 -9999 -9999 -9999 -9999 -9999 -9999 -9999 -9999 -9999 -9999 -9999 -9999 -9999 -9999 -9999 -9999 -9999 -9999 -9999 -9999 -9999 -9999 -9999 -9999 -9999 -9999 -9999 -9999 -9999 -9999 -9999 -9999 -9999 -9999 -9999 -9999 -9999 -9999 -9999 -9999 -9999 -9999 -9999 -9999 -9999 -9999
-9999 -9999 -9999 -9999 -9999 -9999 -9999 -9999 -9999 -9999 -9999 -9999 -9999 -9999 -9999 4458.401 4410.072 4409.999 4435.071 4457.245 4459.839 4409.866 4278.527 4053.56 4027.698 4225.71 4286.479 3802.417 4408.315 3837.666 3717.376 4103.104 4487.705 4546.947 4590.016 4612.686 4606.708 4589.955 4534.977 4500.567 4589.678 4456.568 4178.975 4050.025 4260.995 4344.505 4366.647 4499.349 4454.188 3780.003 3588.705 3786.478 4262.693 4409.86 4320.368 4230.691 4140.298 3964.149 3870 4045.983 3998.208 3960.082 3959.215 3888.125 3870 3870 3870 3761.736 3833.034 3870.343 3959.866 4050.025 4139.754 4148.997 4230.511 4319.697 4320.239 4351.057 4379.357 4362.32 4320.968 4352.927 4300.451 3869.638 3690 4352.093 4499.94 4410.03 4498.421 4324.021 4231.022 4140.157 4050.256 3960.647 3960.042 3930.853 3868.883 3690 3690 3863.268 3878.904 3992.126 3922.471 3870 4017.359 4138.677 4211.165 4260.26 4340.253 4321.982 4366.809 4498.364 4448.492 4499.743 4500.121 4499.729 4410.598 4320.107 4365.464 4522.177 4435.565 4323.985 4230.115 4228.536 4259.763 4230.241 4192.172 4193.676 4221.589 4253.794 4260.141 4307.148 4318.091 4187.587 4141.833 3909.562 3240 3881.664 4101.869 4140.248 4202.402 4232.142 4229.806 4180.003 4078.788 4062.1 4099.851 4139.639 3985.197 3870.001 3870.001 3972.662 4048.585 4049.737 4050.818 4139.883 4194.812 4139.331 4050 4139.473 4170.894 4140.254 4176.44 4229.929 4253.211 -9999 -9999 -9999 -9999 -9999 -9999 -9999 -9999 -9999 -9999 -9999 -9999 -9999 -9999 -9999 -9999 -9999 -9999 -9999 -9999 -9999 -9999 -9999 -9999 -9999 -9999 -9999 -9999 -9999 -9999 -9999 -9999 -9999 -9999 -9999 -9999 -9999 -9999 -9999 -9999 -9999 -9999 -9999 -9999 -9999 -9999 -9999 -9999 -9999 -9999 -9999 -9999 -9999 -9999 -9999 -9999
-9999 -9999 -9999 -9999 -9999 -9999 -9999 -9999 -9999 -9999 -9999 -9999 -9999 -9999 -9999 4499.961 4458.927 4447.079 4458.945 4479.71 4500.009 4486.147 4400.189 4065.316 3996.305 3946.885 3820.707 3803.722 3837.669 3725.015 4037.031 4198.079 4410.017 4499.385 4558.178 4589.977 4582.712 4561.522 4499.959 4436.529 4444.869 4586.907 4284.572 4136.791 4050.031 4268.399 4311.448 4390.742 4514.522 4325.75 3780.004 3780.005 4271.317 4324.884 4334.262 4218.562 4125.007 3870 3870 4020.586 4049.977 4023.443 4001.985 3959.71 3908.157 3912.645 3870.218 3763.26 3780.521 3913.698 3987.542 4049.902 4137.672 4140.189 4229.591 4272.275 4269.776 4266.43 4266.461 4318.367 4320.003 4304.032 4312.559 4068.186 3690 4324.714 4499.47 4469.69 4416.836 4346.301 4365.837 4231.047 4107.237 3960.447 3925.697 3903.037 3891.988 3863.664 3690 3690 3690 3784.5 3870 3915.029 4017.4 4098.031 4256.684 4325.856 4319.503 4229.979 4231.548 4363.346 4392.198 4499.02 4537.909 4534.418 4455.138 4384.918 4411.516 4559.856 4468.395 4319.958 4230.022 4259.912 4319.013 4319.609 4230.257 4213.426 4227.424 4264.239 4319.036 4259.652 4172.088 4110.808 4033.865 3618.43 3240 3606.257 4036.31 4139.763 4190.225 4195.423 4141.056 4132.305 3960 3960 3979.803 4139.841 4056.843 3970.504 3870.001 3870.002 3905.437 3943.683 3998.196 4048.403 4090.051 4050 4050 4093.606 4139.998 4122.628 4140.033 4191.499 4229.555 4230.001 -9999 -9999 -9999 -9999 -9999 -9999 -9999 -9999 -9999 -9999 -9999 -9999 -9999 -9999 -9999 -9999 -9999 -9999 -9999 -9999 -9999 -9999 -9999 -9999 -9999 -9999 -9999 -9999 -9999 -9999 -9999 -9999 -9999 -9999 -9999 -9999 -9999 -9999 -9999 -9999 -9999 -9999 -9999 -9999 -9999 -9999 -9999 -9999 -9999 -9999 -9999 -9999 -9999 -9999 -9999
-9999 -9999 -9999 -9999 -9999 -9999 -9999 -9999 -9999 -9999 -9999 -9999 -9999 -9999 -9999 -9999 4472.839 4466.142 4477.515 4500.092 4529.118 4500.419 4394.954 3953.469 3848.341 3836.871 3822.453 3808.165 3805.081 3730.053 4293.111 4257.38 4410.011 4410.015 4499.609 4541.833 4545.013 4545.021 4478.925 4410.013 4402.867 4450.059 4318.745 4197.962 4050.035 4138.96 4230.219 4350.197 4500.644 4474.097 4453.683 4251.326 3780.007 4139.064 4206.369 3870 3870 3870 3944.589 4027.02 4070.294 4050.013 4020.308 3993.505 3960.308 3954.479 3959.778 3847.021 3765.326 3868.86 3959.388 3991.594 4137.928 4140.021 4183.381 4230.031 4242.135 4231.91 4210.836 4172.961 4317.937 4148.785 4070.133 3690 4124.05 4463.995 4412.085 4317.288 4105.766 3600 4387.479 4267.582 4053.26 3959.799 3902 3873.107 3868.113 3909.448 3863.173 3864.866 3690 3690 3909.531 3969.693 4050.897 4139.52 4143.543 4319.68 4229.828 4140.348 4158.476 4230.395 4254.949 4367.024 4498.826 4551.566 4512.635 4454.981 4500.934 4559.754 4412.603 4298.213 4216.226 4230.154 4319.571 4313.601 4259.581 4230.005 4210.108 4185.335 4141.5 4140.048 4104.26 4050.348 3960.819 3654.846 3240 3618.233 3937.632 4052.279 4140.186 4136.89 4044.023 3960 4134.062 4215.163 3960 4225.891 4141.533 4081.586 4047.063 3954.415 3870.003 3870.004 3870.006 3870.009 3870.012 3955.506 4050 4050.299 4152.136 4123.322 4120.058 4139.927 4131.796 4229.332 -9999 -9999 -9999 -9999 -9999 -9999 -9999 -9999 -9999 -9999 -9999 -9999 -9999 -9999 -9999 -9999 -9999 -9999 -9999 -9999 -9999 -9999 -9999 -9999 -9999 -9999 -9999 -9999 -9999 -9999 -9999 -9999 -9999 -9999 -9999 -9999 -9999 -9999 -9999 -9999 -9999 -9999 -9999 -9999 -9999 -9999 -9999 -9999 -9999 -9999 -9999 -9999 -9999 -9999 -9999
-9999 -9999 -9999 -9999 -9999 -9999 -9999 -9999 -9999 -9999 -9999 -9999 -9999 -9999 -9999 4471.294 4467.285 4472.751 -9999 4557.802 4589.987 4569.143 4500.551 4341.835 3902.896 3857.144 3846.755 3812.367 3791.364 3735.857 3736.49 4306.675 4456.931 4410.011 4442.732 4499.421 4545.087 4589.845 4500.898 4410.165 4362.521 4320.302 4230.51 4196.135 4138.339 4050.041 4138.554 4230.403 4321.907 3870 4347.28 4468.715 4223.826 3780.009 3947.858 4133.37 3827.257 4046.824 3909.704 4002.463 4093.447 4081.367 4050.204 4050.22 4050.046 3959.369 4049.952 3933.003 3780.19 3767.301 3870.071 3925.915 4005.6 4087.523 4140.499 4229.825 4241.183 4230.01 4229.445 4140.061 4184.997 4245.461 3690 4046.45 4319.977 4457.625 4363.65 4063.479 3600 4103.796 4380.005 4260.672 4052.118 3959.782 3890.131 3872.133 3907.348 3960.046 3960.142 3927.947 3698.144 3690 3831.742 3942.147 4024.689 4097.199 4257.602 4319.404 4142.494 4139.979 4139.901 4199.648 4140.598 4264.13 4367.012 4497.926 4499.196 4433.403 4588.939 4545.538 4456.7 4361.876 4232.898 4197.458 4230.159 4260.211 4260.229 4257.036 4230.19 4185.031 4133.464 4133.102 4131.787 4128.906 4095.119 4064.164 3746.431 3240 3729.482 4024.771 4107.179 3960 3960 4132.504 4229.869 4251.036 4150.228 4248.805 4229.576 4140.505 4108.507 4050.327 4047.715 3998.776 4048.198 4091.79 4041.24 3870.016 4050 4051.939 4229.275 4141.021 4122.067 4122.608 4183.485 4140.109 -9999 -9999 -9999 -9999 -9999 -9999 -9999 -9999 -9999 -9999 -9999 -9999 -9999 -9999 -9999 -9999 -9999 -9999 -9999 -9999 -9999 -9999 -9999 -9999 -9999 -9999 -9999 -9999 -9999 -9999 -9999 -9999 -9999 -9999 -9999 -9999 -9999 -9999 -9999 -9999 -9999 -9999 -9999 -9999 -9999 -9999 -9999 -9999 -9999 -9999 -9999 -9999 -9999 -9999 -9999
-9999 -9999 -9999 -9999 -9999 -9999 -9999 -9999 -9999 -9999 -9999 -9999 -9999 -9999 -9999 -9999 -9999 -9999 -9999 4589.493 4622.448 4589.976 4510.577 4422.144 3893.562 3890.38 3871.691 3849.44 3816.126 3742.493 3698.79 4043.086 4400.977 4380.089 4380.089 4411.48 4544.359 4606.384 4589.252 4470.339 4387.757 4319.992 4253.798 4230.142 4190.693 4138.655 4050.048 4075.217 4230.525 4257.26 3870 3870 4380.714 4250.732 3780.011 3780.015 3780.021 3780.029 3780.04 3950.62 4139.154 4140.514 4140.167 4140.906 4100.703 3780 3962.91 4047.794 3826.48 3768.649 3869.642 3913.282 3963.471 4092.978 4182.986 4230.04 4230.002 4189.192 4140.028 4112.662 4168.03 4174.464 3690 4154.864 4365.532 4410.027 4347.48 4072.068 3600 4336.915 4454.948 4273.05 4094.948 3960.084 3876.596 3870.165 3960.368 4020.917 4000.058 3901.594 3690 3862.952 3959.382 3959.985 4016.889 4079.72 4222.468 4251.276 4169.438 4110.638 4050.749 4136.618 4184.591 4229.843 4181.838 4278.663 4322.776 4380.258 4456.529 4500.429 4408.162 4222.435 4364.961 4233.46 4208.634 4229.973 4258.929 4306.539 4319.71 4255.827 4185.444 4184.948 4185.1 4199.746 4118.683 4164.611 4043.219 3749.428 3240 3901.4 3960 4048.765 4050.355 4140.006 4198.888 4230.019 4229.947 4251.891 4230.225 4184.896 4159.212 4109.125 4084.907 4050.69 4141.105 4229.041 4141.888 4040.607 3870.021 4046.812 4142.067 4229.195 4185.067 4143.454 4319.828 4174.214 4190.261 -9999 -9999 -9999 4229.73 -9999 -9999 -9999 -9999 -9999 -9999 -9999 -9999 -9999 -9999 -9999 -9999 -9999 -9999 -9999 -9999 -9999 -9999 -9999 -9999 -9999 -9999 -9999 -9999 -9999 -9999 -9999 -9999 -9999 -9999 -9999 -9999 -9999 -9999 -9999 -9999 -9999 -9999 -9999 -9999 -9999 -9999 -9999 -9999 -9999 -9999 -9999 -9999 -9999 -9999
-9999 -9999 -9999 -9999 -9999 -9999 -9999 -9999 -9999 -9999 -9999 -9999 -9999 -9999 -9999 -9999 -9999 -9999 4462.919 4500.918 4589.523 4563.985 4500.216 4407.35 4079.205 3923.787 3903.323 3891.107 3842.74 3747.435 3728.862 4094.595 4320.662 4347.018 4410.001 4499.218 4545.71 4590.004 4590.001 4516.161 4440.053 4376.001 4320.288 4319.26 4230.479 4140.621 4050.052 4061.212 4098.069 4223.166 3881.304 4265.25 3870 4261.783 4218.86 4179.654 4212.764 4103.767 3780.049 3780.056 4131.151 4230.081 4230.048 4195.472 3780 4103.823 4139.238 4007.523 3825.931 3769.951 3868.657 3960.588 4137.824 4050.741 4228.695 4270.238 4229.841 4138.905 4050.448 4082.38 4109.058 3879.55 3690 4164.8 4363.835 4383.902 4210.216 3600 4022.187 4431.132 4409.149 4148.228 4078.31 3946.915 3870.019 3914.792 4049.174 4065.121 3951.997 3690 3899.974 3899.973 3870 3870.447 3958.733 3962.455 4100.835 4054.1 4051.106 4047.517 3991.962 4047.176 4069.765 4116.668 3870 3870 3870 4174.654 4238.129 4432.798 4238.694 3870 4218.75 4363.628 4230.663 4200.005 4230.068 4319.779 4340.211 4319.958 4280.16 4248.592 4229.971 4186.378 4140.02 4163.344 4054.84 3934.795 3240 3960 4050.097 4085.981 4086.538 4116.063 4140.16 4194.344 4227.798 4230 4193.059 4140.086 4199.892 4146.72 4128.064 4139.929 4229.586 4283.933 4230.006 4136.875 3870.024 4046.641 4183.631 4275.438 4284.163 4272.72 4170.361 4319.419 4225.447 -9999 -9999 -9999 4258.903 4227.272 4034.376 -9999 -9999 -9999 -9999 -9999 -9999 -9999 -9999 -9999 -9999 -9999 -9999 -9999 -9999 -9999 -9999 -9999 -9999 -9999 -9999 -9999 -9999 -9999 -9999 -9999 -9999 -9999 -9999 -9999 -9999 -9999 -9999 -9999 -9999 -9999 -9999 -9999 -9999 -9999 -9999 -9999 -9999 -9999 -9999 -9999 -9999 -9999 -9999
-9999 -9999 -9999 -9999 -9999 -9999 -9999 -9999 -9999 -9999 -9999 -9999 -9999 -9999 -9999 -9999 -9999 -9999 -9999 4464.713 4500.061 4500.043 4478.839 4411.078 4223.362 3949.142 3947.396 3933.579 4085.412 4007.546 3753.829 4215.79 4353.093 4320.662 4409.872 4472.105 4500.45 4589.531 4585.943 4544.781 4497.854 4454.867 4410.411 4409.747 4320.565 4228.644 4095.165 4084.396 4073.653 4091.892 3891.531 4250.909 4263.662 3870 4126.25 4229.649 4268.014 4230.026 4066.724 3780.07 4085.328 4228.172 4196.593 4016.292 3780 3968.898 4139.806 4005.827 3870.094 3779.896 3771.687 3873.307 4077.025 4052.413 4224.517 4273.163 4185.206 4051.006 4045.352 4049.881 4051.047 3985.166 3690 4114.734 4232.032 4301.779 4123.283 3600 4169.884 4469.186 4366.667 4122.217 4005.559 3900.01 3846.639 3870.503 4005.31 4049.419 3875.319 3690 3829.81 3899.972 3899.972 3870 3870 3870 3870 3870 3870 3870 3870 3870 3870 3870 4116.37 4084.947 4211.275 3870 3870 3870 3870 4264.478 4353.976 4364.962 4234.553 4170.006 4174.111 4275.306 4304.282 4320.51 4319.862 4266.056 4229.868 4140.404 4144.675 4155.091 4046.262 3759.267 3240 3905.767 4050.355 4076.308 4083.426 4104.869 4139.976 4187.232 4229.987 4232.979 4221.517 4229.786 4318.49 4187.919 4144.834 4098.774 4117.831 4230.234 4230.22 4219.405 3870.029 3957.645 4081.917 4226.635 4279.163 4307.912 4319.229 4223.917 3870 4188.099 4319.555 4319.846 4275.117 4129.524 3780 3776.564 4016.023 4201.925 4322.228 -9999 -9999 -9999 -9999 -9999 -9999 -9999 -9999 -9999 -9999 -9999 -9999 -9999 -9999 -9999 -9999 -9999 -9999 -9999 -9999 -9999 -9999 -9999 -9999 -9999 -9999 -9999 -9999 -9999 -9999 -9999 -9999 -9999 -9999 -9999 -9999 -9999 -9999 -9999 -9999 -9999 -9999 -9999 -9999
-9999 -9999 -9999 -9999 -9999 -9999 -9999 -9999 -9999 -9999 -9999 -9999 -9999 -9999 -9999 -9999 -9999 -9999 4459.107 4452.859 4448.131 4456.511 4468.069 4479.267 4383.128 4018.599 3974.56 3967.855 4304.926 4295.101 3860.411 3759.665 4195.548 4320.662 4410.098 4442.205 4454.173 4500.312 4538.256 4540.946 4528.979 4506.44 4499.984 4499.703 4409.885 4273.934 4110.021 4110.021 4081.724 3997.714 3909.507 3902.094 4184.602 3870 4144.937 4140.516 4163.174 4200.788 4129.829 3780.085 3946.439 4058.484 4230.08 4266.651 3780 4211.985 4100.716 4011.367 3912.612 3780.174 3772.861 3839.419 3965.623 4138.098 4052.403 4224.393 4181.885 4095.081 4019.124 3960.708 3947.095 3690 3933.39 4050.697 4119.948 4251.351 4160.571 3600 4149.814 4431.493 4365.191 4176.754 3960.92 3858.903 3838.072 3870.56 4005.048 4021.578 3954.69 3690 3784.591 3899.681 3870.209 3916.904 4002.983 3961.178 4042.215 3870 4042.108 4011.792 4049.216 4134.458 4136.507 4135.412 4214.519 4279.422 4447.478 4145.752 4313.952 4228.569 4343.748 4402.083 4379.985 4335.873 4208.332 4157.207 4153.475 4319.543 4249.227 4286.5 4230.144 4237.091 4183.125 4052.76 4027.019 3939.246 3755.594 3240 3477.232 3943.769 4055.492 4050.007 4065.603 4092.773 4139.946 4199.854 4230.006 4241.214 4256.83 4319.745 4364.457 4318.696 4200.202 3985.965 3690 4065.681 4159.289 4164.698 4003.486 3870.036 3957.414 4032.214 4136.604 4185.489 4231.896 4270.293 3870 4240.364 4275.46 4315.894 4328.624 4264.748 3952.926 3780 4162.669 4234.118 4408.242 4365.154 4322.354 -9999 -9999 -9999 -9999 -9999 -9999 -9999 -9999 -9999 -9999 -9999 -9999 -9999 -9999 -9999 -9999 -9999 -9999 -9999 -9999 -9999 -9999 -9999 -9999 -9999 -9999 -9999 -9999 -9999 -9999 -9999 -9999 -9999 -9999 -9999 -9999 -9999 -9999 -9999 -9999 -9999 -9999
-9999 -9999 -9999 -9999 -9999 -9999 -9999 -9999 -9999 -9999 -9999 -9999 -9999 -9999 -9999 -9999 -9999 -9999 4500.206 4475.98 4454.063 4429.833 4410.094 4404.489 4170.421 4098.944 4098.527 3996.29 4003.712 4095.55 3956.764 3910.061 3764.867 4190.714 4382.732 4410.044 4410.059 4449.664 4499.99 4521.471 4529.63 4499.934 4519.026 4513.75 4454.475 4292.625 4110.021 4169.749 4090.667 3999.243 3925.565 4094.048 3908.532 3870 3965.714 4138.28 4100.942 4140.282 4173.261 4043.879 3780.112 3996.86 4199.78 4320.007 4188.104 3780 4212.503 4097.757 3879.201 3774.762 3774.576 3780.271 3868.698 3969.35 4137.993 4051.998 4134.106 4139.422 4005.845 3903.988 3784.257 3690 3956.232 4051.411 4184.074 4230.003 4075.751 3600 4117.197 4342.537 4272.458 4033.526 3871.51 3808.73 3826.296 3915.551 4049.88 3961.286 3942.509 3690 3775.5 3870.398 3959.341 4049.333 4068.342 4050.204 4139.843 4136.014 4140.08 4095.163 4107.793 4140.087 4170.601 4181.602 4232.425 4363.346 4395.242 4487.369 4467.475 4351.405 4401.164 4350.311 4337.526 4319.13 4252.126 4184.839 4140.301 4273.664 4096.369 4219.968 4057.14 4134.555 4028.103 3955.817 3716.841 3240 3240 3540.007 3739.436 3960.801 4049.952 4057.393 4067.576 4092.771 4140.703 4229.805 4244.59 4237.412 4230.054 4289.024 4320.007 4320.12 4318.756 4168.132 3833.726 3690 3690 3859.648 4047.152 3960.685 3870.044 3974.943 3962.108 4050.744 4139.779 4092.793 3870 4139.546 4222.058 4275.118 4319.954 4318.293 4272.303 4211.875 3780 4074.885 4232.667 4233.605 4363.209 -9999 -9999 -9999 -9999 -9999 -9999 -9999 -9999 -9999 -9999 -9999 -9999 -9999 -9999 -9999 -9999 -9999 -9999 -9999 -9999 -9999 -9999 -9999 -9999 -9999 -9999 -9999 -9999 -9999 -9999 -9999 -9999 -9999 -9999 -9999 -9999 -9999 -9999 -9999 -9999 -9999 -9999
